# .PCD v0.7 - Point Cloud Data file format
VERSION 0.7
FIELDS x y z
SIZE 4 4 4
TYPE F F F
COUNT 1 1 1
WIDTH 204
HEIGHT 1
VIEWPOINT 0 0 0 1 0 0 0
POINTS 204
DATA ascii
0.32111049 -0.11843238 1.2820001
0.3235524 -0.11843238 1.2820001
0.31968001 -0.11725714 1.296
0.32214859 -0.11725714 1.296
0.32236287 -0.11644286 1.2870001
0.3235524 -0.11599048 1.2820001
0.32599428 -0.11599048 1.2820001
0.31843525 -0.11523144 1.3010001
0.31968001 -0.11478857 1.296
0.32214859 -0.11478857 1.296
0.32236287 -0.11399143 1.2870001
0.32481429 -0.11399143 1.2870001
0.32599428 -0.11354858 1.2820001
0.31968001 -0.11232 1.296
0.32214859 -0.11232 1.296
0.32461712 -0.11232 1.296
0.32481429 -0.11154 1.2870001
0.32214859 -0.10985143 1.296
0.32461712 -0.10985143 1.296
0.31717145 -0.11567429 1.3060001
0.31219622 -0.11318667 1.3060001
0.31468382 -0.11318667 1.3060001
0.31595716 -0.11275335 1.3010001
0.31843525 -0.11275335 1.3010001
0.31219622 -0.11069906 1.3060001
0.31347907 -0.11027525 1.3010001
0.31595716 -0.11027525 1.3010001
0.31843525 -0.11027525 1.3010001
0.32091337 -0.11027525 1.3010001
0.31089431 -0.10862572 1.3110001
0.31219622 -0.10821144 1.3060001
0.31347907 -0.10779715 1.3010001
0.31595716 -0.10779715 1.3010001
0.31843525 -0.10779715 1.3010001
0.32091337 -0.10779715 1.3010001
0.31219622 -0.10572382 1.3060001
0.31347907 -0.10531905 1.3010001
0.31595716 -0.10531905 1.3010001
0.31843525 -0.10531905 1.3010001
0.32091337 -0.10531905 1.3010001
0.31219622 -0.1032362 1.3060001
0.31347907 -0.10284096 1.3010001
0.31595716 -0.10284096 1.3010001
0.31843525 -0.10284096 1.3010001
0.32091337 -0.10284096 1.3010001
0.31347907 -0.10036287 1.3010001
0.31595716 -0.10036287 1.3010001
0.31843525 -0.10036287 1.3010001
0.32091337 -0.10036287 1.3010001
0.30590004 -0.10612858 1.3110001
0.30839714 -0.10612858 1.3110001
0.31089431 -0.10612858 1.3110001
0.30590004 -0.10363144 1.3110001
0.30839714 -0.10363144 1.3110001
0.31089431 -0.10363144 1.3110001
0.30839714 -0.10113429 1.3110001
0.3097086 -0.10074858 1.3060001
0.31219622 -0.10074858 1.3060001
0.3097086 -0.098260961 1.3060001
0.31100097 -0.097884767 1.3010001
0.31347907 -0.097884767 1.3010001
0.31595716 -0.097884767 1.3010001
0.31843525 -0.097884767 1.3010001
0.32091337 -0.097884767 1.3010001
0.31595716 -0.095406674 1.3010001
0.31721142 -0.095040001 1.296
0.31968001 -0.095040001 1.296
0.31100097 -0.095406674 1.3010001
0.31347907 -0.095406674 1.3010001
0.31721142 -0.092571422 1.296
0.31968001 -0.092571422 1.296
0.31347907 -0.092928581 1.3010001
0.31595716 -0.092928581 1.3010001
0.31968001 -0.090102859 1.296
0.30590004 -0.10113429 1.3110001
0.30456001 -0.099013336 1.3160001
0.30590004 -0.098637149 1.3110001
0.30722097 -0.098260961 1.3060001
0.30340287 -0.096140005 1.3110001
0.30590004 -0.096140005 1.3110001
0.30722097 -0.095773347 1.3060001
0.3097086 -0.095773347 1.3060001
0.31219622 -0.093285725 1.3060001
0.30590004 -0.093642861 1.3110001
0.30839714 -0.093642861 1.3110001
0.31089431 -0.093642861 1.3110001
0.31219622 -0.090798102 1.3060001
0.31347907 -0.090450481 1.3010001
0.31595716 -0.090450481 1.3010001
0.32339147 -0.090450481 1.3010001
0.30205336 -0.094000004 1.3160001
0.30456001 -0.094000004 1.3160001
0.30590004 -0.091145724 1.3110001
0.30839714 -0.091145724 1.3110001
0.31089431 -0.091145724 1.3110001
0.31089431 -0.08864858 1.3110001
0.31219622 -0.08831048 1.3060001
0.31721142 -0.090102859 1.296
0.31347907 -0.087972388 1.3010001
0.31595716 -0.087972388 1.3010001
0.32586953 -0.090450481 1.3010001
0.31843525 -0.087972388 1.3010001
0.32834765 -0.090450481 1.3010001
0.32091337 -0.087972388 1.3010001
0.32339147 -0.087972388 1.3010001
0.30839714 -0.08864858 1.3110001
0.31595716 -0.085494287 1.3010001
0.31843525 -0.085494287 1.3010001
0.32955429 -0.090102859 1.296
0.32461712 -0.08763428 1.296
0.32091337 -0.085494287 1.3010001
0.3270857 -0.08763428 1.296
0.32339147 -0.085494287 1.3010001
0.30571717 -0.09184096 1.3210001
0.30706668 -0.088986672 1.3160001
0.30957335 -0.086480007 1.3160001
0.31089431 -0.086151436 1.3110001
0.31339145 -0.086151436 1.3110001
0.31588858 -0.086151436 1.3110001
0.31843525 -0.083016194 1.3010001
0.32955429 -0.08763428 1.296
0.32461712 -0.085165717 1.296
0.32091337 -0.083016194 1.3010001
0.33074188 -0.089755237 1.291
0.3270857 -0.085165717 1.296
0.31089431 -0.083654292 1.3110001
0.33074188 -0.087296195 1.291
0.32828283 -0.084837146 1.291
0.3270857 -0.082697146 1.296
0.30320096 -0.09184096 1.3210001
0.30320096 -0.089324765 1.3210001
0.30571717 -0.089324765 1.3210001
0.30068478 -0.089324765 1.3210001
0.30320096 -0.086808577 1.3210001
0.30571717 -0.086808577 1.3210001
0.30706668 -0.086480007 1.3160001
0.30839714 -0.083654292 1.3110001
0.30068478 -0.086808577 1.3210001
0.29954669 -0.083973333 1.3160001
0.30205336 -0.083973333 1.3160001
0.30456001 -0.083973333 1.3160001
0.30706668 -0.083973333 1.3160001
0.3145867 -0.083973333 1.3160001
0.31709334 -0.083973333 1.3160001
0.30706668 -0.081466675 1.3160001
0.30957335 -0.081466675 1.3160001
0.31208003 -0.081466675 1.3160001
0.32955429 -0.082697146 1.296
0.33216858 -0.089477144 1.2870001
0.33216858 -0.087025717 1.2870001
0.32971713 -0.08457429 1.2870001
0.33462 -0.089477144 1.2870001
0.33462 -0.087025717 1.2870001
0.33216858 -0.08457429 1.2870001
0.3145867 -0.081466675 1.3160001
0.31709334 -0.081466675 1.3160001
0.2981686 -0.086808577 1.3210001
0.29062003 -0.086808577 1.3210001
0.29313621 -0.086808577 1.3210001
0.29565242 -0.086808577 1.3210001
0.29313621 -0.084292382 1.3210001
0.29565242 -0.084292382 1.3210001
0.2981686 -0.084292382 1.3210001
0.29704002 -0.081466675 1.3160001
0.30068478 -0.081776194 1.3210001
0.30205336 -0.081466675 1.3160001
0.30456001 -0.081466675 1.3160001
0.29565242 -0.081776194 1.3210001
0.29704002 -0.078960001 1.3160001
0.30068478 -0.079260007 1.3210001
0.30205336 -0.078960001 1.3160001
0.30456001 -0.078960001 1.3160001
0.30706668 -0.078960001 1.3160001
0.30957335 -0.078960001 1.3160001
0.31208003 -0.078960001 1.3160001
0.3145867 -0.078960001 1.3160001
0.31709334 -0.078960001 1.3160001
0.30957335 -0.076453343 1.3160001
0.31208003 -0.076453343 1.3160001
0.29704002 -0.076453343 1.3160001
0.29954669 -0.076453343 1.3160001
0.30205336 -0.076453343 1.3160001
0.30456001 -0.076453343 1.3160001
0.30706668 -0.076453343 1.3160001
0.28810385 -0.086808577 1.3210001
0.28810385 -0.084292382 1.3210001
0.29062003 -0.084292382 1.3210001
0.28810385 -0.081776194 1.3210001
0.29062003 -0.081776194 1.3210001
0.29313621 -0.081776194 1.3210001
0.29062003 -0.079260007 1.3210001
0.29313621 -0.079260007 1.3210001
0.29565242 -0.079260007 1.3210001
0.29565242 -0.076743819 1.3210001
0.3357619 -0.086687624 1.2820001
0.33820382 -0.086687624 1.2820001
0.33332002 -0.084245719 1.2820001
0.3357619 -0.084245719 1.2820001
0.33820382 -0.084245719 1.2820001
0.34064573 -0.084245719 1.2820001
0.29313621 -0.076743819 1.3210001
0.28810385 -0.079260007 1.3210001
0.29062003 -0.076743819 1.3210001
0.28810385 -0.076743819 1.3210001
