# .PCD v0.7 - Point Cloud Data file format
VERSION 0.7
FIELDS x y z
SIZE 4 4 4
TYPE F F F
COUNT 1 1 1
WIDTH 239
HEIGHT 1
VIEWPOINT 0 0 0 1 0 0 0
POINTS 239
DATA ascii
-0.8913343 -0.075734288 2.039
-0.89521807 -0.071850479 2.039
-0.8913343 -0.071850479 2.039
-0.88745046 -0.071850479 2.039
-0.88356668 -0.071850479 2.039
-0.87968284 -0.071850479 2.039
-0.875799 -0.071850479 2.039
-0.8913343 -0.067966662 2.039
-0.88222772 -0.06756667 2.0270002
-0.87836677 -0.06756667 2.0270002
-0.89658004 -0.064460002 2.0510001
-0.88745046 -0.064082861 2.039
-0.88356668 -0.064082861 2.039
-0.87968284 -0.064082861 2.039
-0.88222772 -0.059844766 2.0270002
-0.87450576 -0.06756667 2.0270002
-0.87836677 -0.059844766 2.0270002
-0.88608861 -0.055983812 2.0270002
-0.87064481 -0.06756667 2.0270002
-0.88222772 -0.055983812 2.0270002
-0.86678392 -0.06756667 2.0270002
-0.87836677 -0.055983812 2.0270002
-0.87450576 -0.055983812 2.0270002
-0.88468099 -0.067166664 2.0150001
-0.86932862 -0.05949048 2.0150001
-0.87064481 -0.055983812 2.0270002
-0.86678392 -0.055983812 2.0270002
-0.88084292 -0.051814288 2.0150001
-0.87836677 -0.052122861 2.0270002
-0.87450576 -0.052122861 2.0270002
-0.87064481 -0.052122861 2.0270002
-0.86549056 -0.063328572 2.0150001
-0.86549056 -0.05949048 2.0150001
-0.8770048 -0.051814288 2.0150001
-0.86678392 -0.052122861 2.0270002
-0.87450576 -0.048261907 2.0270002
-0.8770048 -0.047976192 2.0150001
-0.87316674 -0.047976192 2.0150001
-0.86678392 -0.048261907 2.0270002
-0.87450576 -0.044400956 2.0270002
-0.86165243 -0.063328572 2.0150001
-0.86165243 -0.05949048 2.0150001
-0.86292291 -0.052122861 2.0270002
-0.85781431 -0.067166664 2.0150001
-0.85781431 -0.063328572 2.0150001
-0.85781431 -0.05949048 2.0150001
-0.87316674 -0.044138096 2.0150001
-0.85397625 -0.067166664 2.0150001
-0.85781431 -0.05565238 2.0150001
-0.86549056 -0.047976192 2.0150001
-0.86549056 -0.044138096 2.0150001
-0.88322765 -0.062951431 2.003
-0.87941235 -0.062951431 2.003
-0.87941235 -0.059136193 2.003
-0.87559712 -0.059136193 2.003
-0.85397625 -0.05565238 2.0150001
-0.85013813 -0.05565238 2.0150001
-0.85397625 -0.051814288 2.0150001
-0.85781431 -0.047976192 2.0150001
-0.85397625 -0.047976192 2.0150001
-0.87178195 -0.043875236 2.003
-0.86165243 -0.044138096 2.0150001
-0.85781431 -0.044138096 2.0150001
-0.86549056 -0.0403 2.0150001
-0.85520101 -0.044400956 2.0270002
-0.85013813 -0.051814288 2.0150001
-0.85013813 -0.047976192 2.0150001
-0.85397625 -0.044138096 2.0150001
-0.86796665 -0.040059999 2.003
-0.86549056 -0.036461908 2.0150001
-0.86415142 -0.040059999 2.003
-0.85781431 -0.036461908 2.0150001
-0.85397625 -0.0403 2.0150001
-0.84889048 -0.062951431 2.003
-0.84889048 -0.059136193 2.003
-0.84630007 -0.051814288 2.0150001
-0.84630007 -0.047976192 2.0150001
-0.84507519 -0.059136193 2.003
-0.84246194 -0.047976192 2.0150001
-0.84630007 -0.044138096 2.0150001
-0.84126002 -0.059136193 2.003
-0.84246194 -0.044138096 2.0150001
-0.85652095 -0.040059999 2.003
-0.85013813 -0.0403 2.0150001
-0.84630007 -0.0403 2.0150001
-0.85397625 -0.036461908 2.0150001
-0.85270572 -0.040059999 2.003
-0.85013813 -0.036461908 2.0150001
-0.88217145 -0.062605716 1.9920001
-0.87458295 -0.055017143 1.9920001
-0.84126002 -0.055320952 2.003
-0.83862388 -0.047976192 2.0150001
-0.83862388 -0.044138096 2.0150001
-0.84246194 -0.0403 2.0150001
-0.83744478 -0.055320952 2.003
-0.83744478 -0.051505715 2.003
-0.8347857 -0.047976192 2.0150001
-0.8347857 -0.044138096 2.0150001
-0.83862388 -0.0403 2.0150001
-0.84630007 -0.036461908 2.0150001
-0.84246194 -0.036461908 2.0150001
-0.83862388 -0.036461908 2.0150001
-0.8347857 -0.0403 2.0150001
-0.83094764 -0.044138096 2.0150001
-0.8347857 -0.036461908 2.0150001
-0.83862388 -0.032623809 2.0150001
-0.84043431 -0.062605716 1.9920001
-0.83664006 -0.062605716 1.9920001
-0.83284575 -0.062605716 1.9920001
-0.83284575 -0.05881143 1.9920001
-0.83362955 -0.055320952 2.003
-0.83362955 -0.051505715 2.003
-0.82981426 -0.055320952 2.003
-0.82710952 -0.051814288 2.0150001
-0.82710952 -0.047976192 2.0150001
-0.83094764 -0.0403 2.0150001
-0.82710952 -0.044138096 2.0150001
-0.83094764 -0.036461908 2.0150001
-0.8347857 -0.032623809 2.0150001
-0.82905143 -0.05881143 1.9920001
-0.82981426 -0.051505715 2.003
-0.82327145 -0.047976192 2.0150001
-0.82327145 -0.044138096 2.0150001
-0.82710952 -0.0403 2.0150001
-0.82710952 -0.036461908 2.0150001
-0.83094764 -0.032623809 2.0150001
-0.82525718 -0.05881143 1.9920001
-0.82218385 -0.055320952 2.003
-0.82599902 -0.051505715 2.003
-0.82599902 -0.047690477 2.003
-0.82327145 -0.0403 2.0150001
-0.82710952 -0.032623809 2.0150001
-0.81943333 -0.047976192 2.0150001
-0.81943333 -0.044138096 2.0150001
-0.82327145 -0.036461908 2.0150001
-0.81943333 -0.0403 2.0150001
-0.82327145 -0.032623809 2.0150001
-0.82146293 -0.055017143 1.9920001
-0.82327145 -0.051814288 2.0150001
-0.81559527 -0.047976192 2.0150001
-0.81559527 -0.044138096 2.0150001
-0.81943333 -0.036461908 2.0150001
-0.82045245 -0.040540006 2.0270002
-0.81943333 -0.032623809 2.0150001
-0.81559527 -0.036461908 2.0150001
-0.8165915 -0.040540006 2.0270002
-0.81559527 -0.032623809 2.0150001
-0.82905143 -0.062605716 1.9920001
-0.81943333 -0.051814288 2.0150001
-0.81273055 -0.048261907 2.0270002
-0.8165915 -0.044400956 2.0270002
-0.80791909 -0.044138096 2.0150001
-0.81175715 -0.036461908 2.0150001
-0.80791909 -0.0403 2.0150001
-0.81175715 -0.032623809 2.0150001
-0.80886954 -0.044400956 2.0270002
-0.80791909 -0.036461908 2.0150001
-0.80886954 -0.040540006 2.0270002
-0.80791909 -0.032623809 2.0150001
-0.80408096 -0.036461908 2.0150001
-0.80500865 -0.044400956 2.0270002
-0.80500865 -0.040540006 2.0270002
-0.80408096 -0.032623809 2.0150001
-0.8002429 -0.036461908 2.0150001
-0.8011477 -0.044400956 2.0270002
-0.8011477 -0.040540006 2.0270002
-0.8002429 -0.032623809 2.0150001
-0.8011477 -0.036679052 2.0270002
-0.79640478 -0.032623809 2.0150001
-0.79728669 -0.036679052 2.0270002
-0.79728669 -0.048261907 2.0270002
-0.7934258 -0.048261907 2.0270002
-0.7934258 -0.044400956 2.0270002
-0.79256672 -0.044138096 2.0150001
-0.79256672 -0.0403 2.0150001
-0.78872859 -0.0403 2.0150001
-0.79728669 -0.032818098 2.0270002
-0.7934258 -0.036679052 2.0270002
-0.7934258 -0.032818098 2.0270002
-0.78956485 -0.036679052 2.0270002
-0.78956485 -0.032818098 2.0270002
-0.7857039 -0.036679052 2.0270002
-0.78956485 -0.028957145 2.0270002
-0.7857039 -0.032818098 2.0270002
-0.7857039 -0.028957145 2.0270002
-0.78184289 -0.032818098 2.0270002
-0.78184289 -0.028957145 2.0270002
-0.777982 -0.032818098 2.0270002
-0.7857039 -0.048261907 2.0270002
-0.78489053 -0.044138096 2.0150001
-0.78489053 -0.0403 2.0150001
-0.78105241 -0.044138096 2.0150001
-0.78105241 -0.0403 2.0150001
-0.77721429 -0.044138096 2.0150001
-0.77337623 -0.044138096 2.0150001
-0.77721429 -0.0403 2.0150001
-0.77337623 -0.0403 2.0150001
-0.77721429 -0.036461908 2.0150001
-0.7695381 -0.0403 2.0150001
-0.77412105 -0.032818098 2.0270002
-0.76570004 -0.032623809 2.0150001
-0.76570004 -0.028785717 2.0150001
-0.76877046 -0.036244761 2.003
-0.76495522 -0.036244761 2.003
-0.76113999 -0.036244761 2.003
-0.76877046 -0.028614286 2.003
-0.76495522 -0.028614286 2.003
-0.75732476 -0.036244761 2.003
-0.75732476 -0.032429524 2.003
-0.75350952 -0.032429524 2.003
-0.75034767 -0.032623809 2.0150001
-0.74650955 -0.032623809 2.0150001
-0.75732476 -0.028614286 2.003
-0.75350952 -0.028614286 2.003
-0.74650955 -0.024947621 2.0150001
-0.75350952 -0.036244761 2.003
-0.74969429 -0.032429524 2.003
-0.74969429 -0.028614286 2.003
-0.74587905 -0.028614286 2.003
-0.74267149 -0.032623809 2.0150001
-0.74206382 -0.028614286 2.003
-0.74267149 -0.028785717 2.0150001
-0.73443335 -0.028614286 2.003
-0.74267149 -0.024947621 2.0150001
-0.73883337 -0.032623809 2.0150001
-0.73499531 -0.032623809 2.0150001
-0.73115718 -0.028785717 2.0150001
-0.73499531 -0.024947621 2.0150001
-0.72731912 -0.028785717 2.0150001
-0.73115718 -0.024947621 2.0150001
-0.72731912 -0.024947621 2.0150001
-0.73061806 -0.028614286 2.003
-0.723481 -0.028785717 2.0150001
-0.723481 -0.024947621 2.0150001
-0.71964294 -0.024947621 2.0150001
-0.72392863 -0.028957145 2.0270002
-0.72006768 -0.028957145 2.0270002
-0.71154189 -0.024799047 2.003
-0.71620673 -0.028957145 2.0270002
