# .PCD v0.7 - Point Cloud Data file format
VERSION 0.7
FIELDS x y z
SIZE 4 4 4
TYPE F F F
COUNT 1 1 1
WIDTH 405
HEIGHT 1
VIEWPOINT 0 0 0 1 0 0 0
POINTS 405
DATA ascii
-0.15878572 -0.023288572 2.223
-0.15455143 -0.023288572 2.223
-0.15031715 -0.023288572 2.223
-0.14608286 -0.023288572 2.223
-0.15031715 -0.019054286 2.223
-0.14608286 -0.019054286 2.223
-0.15031715 -0.014820001 2.223
-0.15552476 -0.01065238 2.237
-0.14700285 -0.014913334 2.237
-0.1512638 -0.01065238 2.237
-0.14700285 -0.01065238 2.237
-0.1512638 -0.0063914284 2.237
-0.15552476 -0.0021304761 2.237
-0.1512638 -0.0021304761 2.237
-0.14700285 -0.0021304761 2.237
-0.16514668 -0.006434286 2.2520001
-0.16085716 -0.006434286 2.2520001
-0.15656763 -0.006434286 2.2520001
-0.14798857 -0.006434286 2.2520001
-0.14369905 -0.006434286 2.2520001
-0.1683076 -0.0021304761 2.237
-0.16514668 -0.0021447621 2.2520001
-0.16085716 -0.0021447621 2.2520001
-0.1683076 0.0021304761 2.237
-0.16404666 0.0021304761 2.237
-0.1597857 0.0021304761 2.237
-0.15552476 0.0021304761 2.237
-0.1512638 0.0021304761 2.237
-0.16404666 0.0063914284 2.237
-0.1597857 0.0063914284 2.237
-0.15552476 0.0063914284 2.237
-0.1512638 0.0063914284 2.237
-0.14700285 0.0063914284 2.237
-0.14369905 -0.01072381 2.2520001
-0.13940953 -0.01072381 2.2520001
-0.13940953 -0.006434286 2.2520001
-0.14369905 -0.0021447621 2.2520001
-0.14798857 0.0021447621 2.2520001
-0.1427419 0.0063914284 2.237
-0.13940953 -0.0021447621 2.2520001
-0.14369905 0.0021447621 2.2520001
-0.15552476 0.01065238 2.237
-0.1512638 0.01065238 2.237
-0.14700285 0.01065238 2.237
-0.1427419 0.01065238 2.237
-0.1683076 0.0063914284 2.237
-0.1683076 0.01065238 2.237
-0.15552476 0.014913334 2.237
-0.1512638 0.014913334 2.237
-0.14700285 0.014913334 2.237
-0.13940953 0.0021447621 2.2520001
-0.1427419 0.014913334 2.237
-0.13512 0.0021447621 2.2520001
-0.13940953 0.006434286 2.2520001
-0.17372571 -0.006434286 2.2520001
-0.16943619 -0.006434286 2.2520001
-0.17801523 -0.0021447621 2.2520001
-0.17372571 -0.0021447621 2.2520001
-0.17801523 0.0021447621 2.2520001
-0.17372571 0.0021447621 2.2520001
-0.17372571 0.006434286 2.2520001
-0.17372571 0.01072381 2.2520001
-0.16514668 0.01072381 2.2520001
-0.16085716 0.01072381 2.2520001
-0.13512 -0.0021447621 2.2520001
-0.13083048 -0.0021447621 2.2520001
-0.13083048 0.0021447621 2.2520001
-0.13512 0.006434286 2.2520001
-0.13940953 0.01072381 2.2520001
-0.12654096 -0.0021447621 2.2520001
-0.12654096 0.0021447621 2.2520001
-0.13083048 0.006434286 2.2520001
-0.13512 0.01072381 2.2520001
-0.16514668 0.015013334 2.2520001
-0.16085716 0.015013334 2.2520001
-0.15552476 0.019174285 2.237
-0.1512638 0.019174285 2.237
-0.14700285 0.019174285 2.237
-0.1427419 0.019174285 2.237
-0.15552476 0.023435239 2.237
-0.16085716 0.019302858 2.2520001
-0.1512638 0.023435239 2.237
-0.13940953 0.015013334 2.2520001
-0.16085716 -0.01072381 2.2520001
-0.13596 -0.0064742859 2.266
-0.1316438 -0.0064742859 2.266
-0.12732762 -0.0064742859 2.266
-0.12225143 -0.0021447621 2.2520001
-0.12225143 0.0021447621 2.2520001
-0.12654096 0.006434286 2.2520001
-0.13083048 0.01072381 2.2520001
-0.13512 0.015013334 2.2520001
-0.13940953 0.019302858 2.2520001
-0.12654096 0.01072381 2.2520001
-0.13083048 0.015013334 2.2520001
-0.13512 0.019302858 2.2520001
-0.1512638 0.02769619 2.237
-0.14798857 0.023592383 2.2520001
-0.16085716 0.023592383 2.2520001
-0.15656763 0.027881905 2.2520001
-0.14798857 0.027881905 2.2520001
-0.12225143 0.01072381 2.2520001
-0.12654096 0.015013334 2.2520001
-0.14369905 0.027881905 2.2520001
-0.11796191 0.0021447621 2.2520001
-0.12301143 0.0064742859 2.266
-0.16085716 0.027881905 2.2520001
-0.11796191 -0.0021447621 2.2520001
-0.11869524 0.0064742859 2.266
-0.1316438 0.019422857 2.266
-0.14459239 0.023739047 2.266
-0.14027619 0.023739047 2.266
-0.13596 0.023739047 2.266
-0.11437905 0.0021580954 2.266
-0.11869524 0.010790476 2.266
-0.12732762 0.019422857 2.266
-0.1316438 0.023739047 2.266
-0.16085716 0.032171432 2.2520001
-0.15656763 0.032171432 2.2520001
-0.15227811 0.032171432 2.2520001
-0.1597857 0.036218096 2.237
-0.1512638 0.036218096 2.237
-0.14798857 0.032171432 2.2520001
-0.14369905 0.032171432 2.2520001
-0.15656763 0.036460951 2.2520001
-0.15552476 0.040479045 2.237
-0.14027619 0.028055238 2.266
-0.13596 0.028055238 2.266
-0.17372571 -0.01072381 2.2520001
-0.16943619 -0.01072381 2.2520001
-0.16514668 -0.01072381 2.2520001
-0.11437905 -0.0021580954 2.266
-0.12732762 0.023739047 2.266
-0.1316438 0.028055238 2.266
-0.14027619 0.032371432 2.266
-0.13596 0.032371432 2.266
-0.14798857 0.036460951 2.2520001
-0.14369905 0.036460951 2.2520001
-0.13083048 0.036460951 2.2520001
-0.12732762 0.028055238 2.266
-0.1316438 0.032371432 2.266
-0.15227811 0.040750477 2.2520001
-0.14798857 0.040750477 2.2520001
-0.16085716 0.040750477 2.2520001
-0.16085716 0.045040004 2.2520001
-0.15656763 0.045040004 2.2520001
-0.15227811 0.045040004 2.2520001
-0.14798857 0.045040004 2.2520001
-0.14027619 0.036687616 2.266
-0.14459239 0.041003808 2.266
-0.13596 0.036687616 2.266
-0.14027619 0.041003808 2.266
-0.11948096 0.015206668 2.2810001
-0.11513619 0.015206668 2.2810001
-0.12382573 0.023896191 2.2810001
-0.11948096 0.023896191 2.2810001
-0.12382573 0.028240955 2.2810001
-0.12732762 0.032371432 2.266
-0.12732762 0.036687616 2.266
-0.13596 0.041003808 2.266
-0.1316438 0.041003808 2.266
-0.12732762 0.041003808 2.266
-0.12382573 0.032585718 2.2810001
-0.12301143 0.041003808 2.266
-0.16943619 0.049329523 2.2520001
-0.16514668 0.049329523 2.2520001
-0.16085716 0.049329523 2.2520001
-0.15656763 0.049329523 2.2520001
-0.15227811 0.049329523 2.2520001
-0.14459239 0.04532 2.266
-0.14027619 0.04532 2.266
-0.13512 0.049329523 2.2520001
-0.16085716 0.053619049 2.2520001
-0.15656763 0.053619049 2.2520001
-0.13596 0.04532 2.266
-0.1316438 0.04532 2.266
-0.12732762 0.04532 2.266
-0.17912191 -0.0064742859 2.266
-0.11948096 0.032585718 2.2810001
-0.12382573 0.036930475 2.2810001
-0.12301143 0.04532 2.266
-0.14890857 0.049636189 2.266
-0.14459239 0.049636189 2.266
-0.14027619 0.049636189 2.266
-0.1316438 0.049636189 2.266
-0.12732762 0.049636189 2.266
-0.11948096 0.036930475 2.2810001
-0.11869524 0.04532 2.266
-0.12301143 0.049636189 2.266
-0.15322477 0.053952381 2.266
-0.14890857 0.053952381 2.266
-0.15656763 0.057908572 2.2520001
-0.15227811 0.057908572 2.2520001
-0.14459239 0.053952381 2.266
-0.17372571 0.053619049 2.2520001
-0.16943619 0.053619049 2.2520001
-0.16617334 0.053952381 2.266
-0.16514668 0.057908572 2.2520001
-0.17480572 0.04532 2.266
-0.16185714 0.058268569 2.266
-0.16085716 0.062198099 2.2520001
-0.14890857 0.058268569 2.266
-0.14027619 0.053952381 2.266
-0.14459239 0.058268569 2.266
-0.13596 0.053952381 2.266
-0.1316438 0.053952381 2.266
-0.14027619 0.058268569 2.266
-0.13596 0.058268569 2.266
-0.12732762 0.053952381 2.266
-0.1316438 0.058268569 2.266
-0.1246943 0.015313334 2.2970002
-0.1246943 0.019688573 2.2970002
-0.12031905 0.019688573 2.2970002
-0.11594382 0.019688573 2.2970002
-0.11079144 0.032585718 2.2810001
-0.12031905 0.028439049 2.2970002
-0.11594382 0.032814287 2.2970002
-0.11513619 0.036930475 2.2810001
-0.11079144 0.036930475 2.2810001
-0.11948096 0.04127524 2.2810001
-0.11513619 0.04127524 2.2810001
-0.11156858 0.028439049 2.2970002
-0.11006286 0.041003808 2.266
-0.11437905 0.04532 2.266
-0.11869524 0.049636189 2.266
-0.11437905 0.049636189 2.266
-0.12301143 0.053952381 2.266
-0.11869524 0.053952381 2.266
-0.12732762 0.058268569 2.266
-0.11437905 0.053952381 2.266
-0.11869524 0.058268569 2.266
-0.11079144 0.045620002 2.2810001
-0.11437905 0.058268569 2.266
-0.18343809 0.049636189 2.266
-0.17912191 0.049636189 2.266
-0.17480572 0.049636189 2.266
-0.17912191 0.053952381 2.266
-0.17912191 0.058268569 2.266
-0.17480572 0.058268569 2.266
-0.17048953 0.058268569 2.266
-0.17048953 0.062584765 2.266
-0.16617334 0.062584765 2.266
-0.15754095 0.062584765 2.266
-0.15322477 0.062584765 2.266
-0.14890857 0.062584765 2.266
-0.14459239 0.062584765 2.266
-0.14027619 0.062584765 2.266
-0.1316438 0.062584765 2.266
-0.13512 0.062198099 2.2520001
-0.16185714 0.066900954 2.266
-0.15754095 0.066900954 2.266
-0.15322477 0.066900954 2.266
-0.12732762 0.062584765 2.266
-0.12301143 0.062584765 2.266
-0.11869524 0.062584765 2.266
-0.11079144 0.049964767 2.2810001
-0.11006286 0.058268569 2.266
-0.11437905 0.062584765 2.266
-0.14890857 0.066900954 2.266
-0.14459239 0.066900954 2.266
-0.14027619 0.066900954 2.266
-0.13596 0.066900954 2.266
-0.1316438 0.066900954 2.266
-0.12382573 0.05865429 2.2810001
-0.12732762 0.066900954 2.266
-0.12301143 0.066900954 2.266
-0.11869524 0.066900954 2.266
-0.11079144 0.054309525 2.2810001
-0.11006286 0.062584765 2.266
-0.11437905 0.066900954 2.266
-0.16617334 0.066900954 2.266
-0.16185714 0.071217142 2.266
-0.15754095 0.071217142 2.266
-0.15322477 0.071217142 2.266
-0.14890857 0.071217142 2.266
-0.14459239 0.071217142 2.266
-0.14027619 0.071217142 2.266
-0.16514668 0.075066663 2.2520001
-0.16085716 0.075066663 2.2520001
-0.13596 0.071217142 2.266
-0.17912191 0.062584765 2.266
-0.17480572 0.062584765 2.266
-0.17480572 0.066900954 2.266
-0.17048953 0.066900954 2.266
-0.17480572 0.071217142 2.266
-0.17048953 0.071217142 2.266
-0.16617334 0.071217142 2.266
-0.17048953 0.07553333 2.266
-0.15754095 0.07553333 2.266
-0.15322477 0.07553333 2.266
-0.16943619 0.079356194 2.2520001
-0.16514668 0.079356194 2.2520001
-0.16085716 0.079356194 2.2520001
-0.15656763 0.079356194 2.2520001
-0.14890857 0.07553333 2.266
-0.14459239 0.07553333 2.266
-0.14027619 0.07553333 2.266
-0.1316438 0.071217142 2.266
-0.13596 0.07553333 2.266
-0.12732762 0.071217142 2.266
-0.12301143 0.071217142 2.266
-0.1316438 0.07553333 2.266
-0.12732762 0.07553333 2.266
-0.11869524 0.071217142 2.266
-0.12301143 0.07553333 2.266
-0.11670095 0.024220953 2.312
-0.11670095 0.028624762 2.312
-0.10719334 0.050315242 2.2970002
-0.10644667 0.054309525 2.2810001
-0.10210191 0.054309525 2.2810001
-0.10644667 0.05865429 2.2810001
-0.10574667 0.062584765 2.266
-0.11006286 0.066900954 2.266
-0.10143048 0.062584765 2.266
-0.10574667 0.066900954 2.266
-0.11437905 0.071217142 2.266
-0.11006286 0.071217142 2.266
-0.11869524 0.07553333 2.266
-0.10143048 0.066900954 2.266
-0.10574667 0.071217142 2.266
-0.11437905 0.07553333 2.266
-0.11006286 0.07553333 2.266
-0.1028181 0.050315242 2.2970002
-0.10143048 0.071217142 2.266
-0.17480572 0.07553333 2.266
-0.17480572 0.079849526 2.266
-0.15322477 0.079849526 2.266
-0.14890857 0.079849526 2.266
-0.14459239 0.079849526 2.266
-0.14027619 0.079849526 2.266
-0.13596 0.079849526 2.266
-0.1316438 0.079849526 2.266
-0.12732762 0.079849526 2.266
-0.12301143 0.079849526 2.266
-0.15322477 0.084165715 2.266
-0.14890857 0.084165715 2.266
-0.14459239 0.084165715 2.266
-0.11869524 0.079849526 2.266
-0.11437905 0.079849526 2.266
-0.11006286 0.079849526 2.266
-0.14027619 0.084165715 2.266
-0.13596 0.084165715 2.266
-0.1316438 0.084165715 2.266
-0.12732762 0.084165715 2.266
-0.12301143 0.084165715 2.266
-0.11869524 0.084165715 2.266
-0.11437905 0.084165715 2.266
-0.11006286 0.084165715 2.266
-0.10509334 0.075066663 2.2520001
-0.16514668 0.083645716 2.2520001
-0.16085716 0.083645716 2.2520001
-0.15656763 0.083645716 2.2520001
-0.15322477 0.088481903 2.266
-0.14890857 0.088481903 2.266
-0.14459239 0.088481903 2.266
-0.14027619 0.088481903 2.266
-0.13596 0.088481903 2.266
-0.1316438 0.088481903 2.266
-0.16943619 0.083645716 2.2520001
-0.16943619 0.087935239 2.2520001
-0.16514668 0.087935239 2.2520001
-0.16085716 0.087935239 2.2520001
-0.15656763 0.087935239 2.2520001
-0.16943619 0.092224769 2.2520001
-0.16514668 0.092224769 2.2520001
-0.16085716 0.092224769 2.2520001
-0.15656763 0.092224769 2.2520001
-0.15227811 0.092224769 2.2520001
-0.12732762 0.088481903 2.266
-0.14459239 0.092798099 2.266
-0.16943619 0.096514292 2.2520001
-0.16514668 0.096514292 2.2520001
-0.16085716 0.096514292 2.2520001
-0.14798857 0.092224769 2.2520001
-0.14798857 0.096514292 2.2520001
-0.14027619 0.092798099 2.266
-0.13596 0.092798099 2.266
-0.12301143 0.088481903 2.266
-0.11869524 0.088481903 2.266
-0.11437905 0.088481903 2.266
-0.11302572 0.024378097 2.3270001
-0.10859334 0.033242859 2.3270001
-0.10859334 0.037675239 2.3270001
-0.10789333 0.046240002 2.312
-0.10080381 0.075066663 2.2520001
-0.10509334 0.079356194 2.2520001
-0.10080381 0.079356194 2.2520001
-0.10509334 0.083645716 2.2520001
-0.10080381 0.083645716 2.2520001
-0.10938286 0.087935239 2.2520001
-0.10509334 0.087935239 2.2520001
-0.13083048 0.092224769 2.2520001
-0.10080381 0.087935239 2.2520001
-0.16085716 0.10080381 2.2520001
-0.15552476 0.095871426 2.237
-0.1512638 0.095871426 2.237
-0.10934 0.024545716 2.3430002
-0.10934 0.029008573 2.3430002
-0.10487715 0.029008573 2.3430002
-0.10416096 0.033242859 2.3270001
-0.10416096 0.037675239 2.3270001
-0.10859334 0.042107619 2.3270001
-0.10416096 0.042107619 2.3270001
-0.10348953 0.046240002 2.312
-0.099085711 0.046240002 2.312
