# .PCD v0.7 - Point Cloud Data file format
VERSION 0.7
FIELDS x y z
SIZE 4 4 4
TYPE F F F
COUNT 1 1 1
WIDTH 489
HEIGHT 1
VIEWPOINT 0 0 0 1 0 0 0
POINTS 489
DATA ascii
0.86256665 -0.26716664 1.603
0.86562002 -0.26716664 1.603
0.86256665 -0.26411334 1.603
0.86562002 -0.26411334 1.603
0.86256665 -0.26106 1.603
0.86562002 -0.26106 1.603
0.85951334 -0.25800666 1.603
0.86256665 -0.25800666 1.603
0.86562002 -0.25800666 1.603
0.85951334 -0.25495335 1.603
0.86256665 -0.25495335 1.603
0.86562002 -0.25495335 1.603
0.86073434 -0.25315714 1.6110001
0.85951334 -0.25189999 1.603
0.86256665 -0.25189999 1.603
0.86562002 -0.25189999 1.603
0.86073434 -0.25008857 1.6110001
0.85951334 -0.24884667 1.603
0.86256665 -0.24884667 1.603
0.86562002 -0.24884667 1.603
0.85646003 -0.24579334 1.603
0.85951334 -0.24579334 1.603
0.86256665 -0.24579334 1.603
0.86562002 -0.24579334 1.603
0.85340667 -0.24579334 1.603
0.85646003 -0.24274001 1.603
0.85951334 -0.24274001 1.603
0.86256665 -0.24274001 1.603
0.86562002 -0.24274001 1.603
0.85035336 -0.24274001 1.603
0.85340667 -0.24274001 1.603
0.85340667 -0.23968667 1.603
0.85646003 -0.23968667 1.603
0.85951334 -0.23968667 1.603
0.86256665 -0.23968667 1.603
0.86562002 -0.23968667 1.603
0.85152858 -0.24088286 1.6110001
0.85035336 -0.23968667 1.603
0.85340667 -0.23663335 1.603
0.86073434 -0.23781429 1.6110001
0.85951334 -0.23663335 1.603
0.86256665 -0.23663335 1.603
0.86562002 -0.23663335 1.603
0.84906477 -0.24192952 1.618
0.85214669 -0.24192952 1.618
0.84906477 -0.23884763 1.618
0.84846002 -0.23781429 1.6110001
0.85152858 -0.23781429 1.6110001
0.86073434 -0.23474571 1.6110001
0.86380291 -0.23474571 1.6110001
0.85035336 -0.23663335 1.603
0.85340667 -0.23357999 1.603
0.86256665 -0.23357999 1.603
0.86562002 -0.23357999 1.603
0.85016572 -0.24312572 1.626
0.84906477 -0.23576571 1.618
0.84846002 -0.23474571 1.6110001
0.85152858 -0.23474571 1.6110001
0.85459715 -0.23167716 1.6110001
0.86073434 -0.23167716 1.6110001
0.86380291 -0.23167716 1.6110001
0.85035336 -0.23357999 1.603
0.85340667 -0.23052667 1.603
0.86256665 -0.23052667 1.603
0.86562002 -0.23052667 1.603
0.84846002 -0.23167716 1.6110001
0.85152858 -0.23167716 1.6110001
0.85152858 -0.22860856 1.6110001
0.85459715 -0.22860856 1.6110001
0.85340667 -0.22747333 1.603
0.86073434 -0.22860856 1.6110001
0.86256665 -0.22747333 1.603
0.86380291 -0.22860856 1.6110001
0.86562002 -0.22747333 1.603
0.84846002 -0.22860856 1.6110001
0.84906477 -0.23268381 1.618
0.85152858 -0.22554001 1.6110001
0.85459715 -0.22554001 1.6110001
0.85340667 -0.22442001 1.603
0.86073434 -0.22554001 1.6110001
0.86256665 -0.22442001 1.603
0.86380291 -0.22554001 1.6110001
0.86562002 -0.22442001 1.603
0.83311713 -0.24088286 1.6110001
0.83311713 -0.23781429 1.6110001
0.84906477 -0.2296019 1.618
0.84846002 -0.22554001 1.6110001
0.85152858 -0.22247143 1.6110001
0.85459715 -0.22247143 1.6110001
0.85340667 -0.22136667 1.603
0.85951334 -0.22136667 1.603
0.86073434 -0.22247143 1.6110001
0.86256665 -0.22136667 1.603
0.86562002 -0.22136667 1.603
0.84397149 -0.24002858 1.626
0.84706855 -0.24002858 1.626
0.85016572 -0.24002858 1.626
0.84087431 -0.23693143 1.626
0.84397149 -0.23693143 1.626
0.84706855 -0.23693143 1.626
0.85016572 -0.23693143 1.626
0.84087431 -0.23383428 1.626
0.84397149 -0.23383428 1.626
0.84706855 -0.23383428 1.626
0.85016572 -0.23383428 1.626
0.84706855 -0.23073715 1.626
0.85016572 -0.23073715 1.626
0.84906477 -0.22652 1.618
0.85214669 -0.2234381 1.618
0.85152858 -0.21940286 1.6110001
0.85459715 -0.21940286 1.6110001
0.85340667 -0.21831334 1.603
0.85951334 -0.21831334 1.603
0.86073434 -0.21940286 1.6110001
0.86256665 -0.21831334 1.603
0.83777714 -0.23693143 1.626
0.83777714 -0.23383428 1.626
0.84501141 -0.23187238 1.6340001
0.84812385 -0.23187238 1.6340001
0.83777714 -0.22764 1.626
0.84087431 -0.22764 1.626
0.84706855 -0.22764 1.626
0.85016572 -0.22764 1.626
0.85016572 -0.22454286 1.626
0.8532629 -0.22454286 1.626
0.84189904 -0.23187238 1.6340001
0.84812385 -0.22876 1.6340001
0.83777714 -0.22454286 1.626
0.84087431 -0.22454286 1.626
0.85016572 -0.22144572 1.626
0.8532629 -0.22144572 1.626
0.85214669 -0.2203562 1.618
0.83004856 -0.23781429 1.6110001
0.86073434 -0.21633428 1.6110001
0.85152858 -0.21633428 1.6110001
0.85035336 -0.21526001 1.603
0.85340667 -0.21526001 1.603
0.85951334 -0.21526001 1.603
0.86256665 -0.21526001 1.603
0.84397149 -0.24312572 1.626
0.84706855 -0.24312572 1.626
0.85123622 -0.22564763 1.6340001
0.83057332 -0.2296019 1.618
0.85016572 -0.21834858 1.626
0.8532629 -0.21834858 1.626
0.85214669 -0.21727428 1.618
0.85214669 -0.21419239 1.618
0.85152858 -0.21326573 1.6110001
0.86073434 -0.21326573 1.6110001
0.85035336 -0.21220666 1.603
0.85340667 -0.21220666 1.603
0.85951334 -0.21220666 1.603
0.86256665 -0.21220666 1.603
0.83057332 -0.22652 1.618
0.84846002 -0.21019714 1.6110001
0.86073434 -0.21019714 1.6110001
0.84730005 -0.20915334 1.603
0.85035336 -0.20915334 1.603
0.85340667 -0.20915334 1.603
0.85951334 -0.20915334 1.603
0.86256665 -0.20915334 1.603
0.85123622 -0.22253524 1.6340001
0.85016572 -0.21525143 1.626
0.8532629 -0.21525143 1.626
0.85214669 -0.20802857 1.618
0.85152858 -0.20712858 1.6110001
0.86073434 -0.20712858 1.6110001
0.85035336 -0.2061 1.603
0.85340667 -0.2061 1.603
0.85951334 -0.2061 1.603
0.86256665 -0.2061 1.603
0.81676668 -0.23968667 1.603
0.81982005 -0.23968667 1.603
0.82287335 -0.23968667 1.603
0.83004856 -0.24088286 1.6110001
0.81982005 -0.23663335 1.603
0.82287335 -0.23663335 1.603
0.81676668 -0.23357999 1.603
0.81982005 -0.23357999 1.603
0.82698005 -0.23474571 1.6110001
0.82391149 -0.23167716 1.6110001
0.82698005 -0.23167716 1.6110001
0.82391149 -0.22860856 1.6110001
0.81676668 -0.23052667 1.603
0.85123622 -0.21942286 1.6340001
0.8532629 -0.2121543 1.626
0.85214669 -0.20494667 1.618
0.85152858 -0.20406 1.6110001
0.85035336 -0.20304666 1.603
0.85340667 -0.20304666 1.603
0.85646003 -0.20304666 1.603
0.85951334 -0.20304666 1.603
0.86256665 -0.20304666 1.603
0.85175717 -0.2266143 1.641
0.84863138 -0.22348858 1.641
0.85175717 -0.22348858 1.641
0.84863138 -0.22036287 1.641
0.85175717 -0.22036287 1.641
0.85522854 -0.20186476 1.618
0.85459715 -0.20099144 1.6110001
0.86073434 -0.20099144 1.6110001
0.85340667 -0.19999334 1.603
0.85951334 -0.19999334 1.603
0.86256665 -0.19999334 1.603
0.85746098 -0.20697334 1.6340001
0.8543486 -0.20386095 1.6340001
0.85636002 -0.20286287 1.626
0.85746098 -0.20386095 1.6340001
0.81371337 -0.23357999 1.603
0.81371337 -0.23052667 1.603
0.81676668 -0.22747333 1.603
0.85522854 -0.19878286 1.618
0.85831046 -0.19878286 1.618
0.85766572 -0.19792286 1.6110001
0.86073434 -0.19792286 1.6110001
0.85951334 -0.19694 1.603
0.86256665 -0.19694 1.603
0.8543486 -0.20074858 1.6340001
0.85636002 -0.19976573 1.626
0.85746098 -0.20074858 1.6340001
0.85636002 -0.19666857 1.626
0.85522854 -0.19570096 1.618
0.85831046 -0.19570096 1.618
0.86139238 -0.19570096 1.618
0.86073434 -0.1948543 1.6110001
0.85951334 -0.19388667 1.603
0.86256665 -0.19388667 1.603
0.86139238 -0.19261904 1.618
0.86073434 -0.19178571 1.6110001
0.85951334 -0.19083333 1.603
0.86256665 -0.19083333 1.603
0.8543486 -0.19763619 1.6340001
0.85746098 -0.19763619 1.6340001
0.85945719 -0.19357143 1.626
0.86255431 -0.19357143 1.626
0.86139238 -0.18953715 1.618
0.86073434 -0.18871716 1.6110001
0.86380291 -0.18871716 1.6110001
0.86687142 -0.18871716 1.6110001
0.81371337 -0.23968667 1.603
0.81066006 -0.23663335 1.603
0.81016004 -0.23560001 1.5960001
0.81320006 -0.23560001 1.5960001
0.81066006 -0.23357999 1.603
0.81066006 -0.23052667 1.603
0.85746098 -0.19452383 1.6340001
0.85945719 -0.19047429 1.626
0.86255431 -0.19047429 1.626
0.85636002 -0.18737714 1.626
0.85831046 -0.18645523 1.618
0.86073434 -0.18564858 1.6110001
0.86380291 -0.18564858 1.6110001
0.86687142 -0.18564858 1.6110001
0.86057335 -0.19452383 1.6340001
0.85746098 -0.19141144 1.6340001
0.86057335 -0.19141144 1.6340001
0.85945719 -0.18737714 1.626
0.86139238 -0.18645523 1.618
0.85636002 -0.18428001 1.626
0.85945719 -0.18428001 1.626
0.86139238 -0.18337333 1.618
0.8644743 -0.18337333 1.618
0.86380291 -0.18258001 1.6110001
0.86687142 -0.18258001 1.6110001
0.85905051 -0.19630952 1.649
0.85800856 -0.19535714 1.641
0.85800856 -0.19223143 1.641
0.85800856 -0.18910572 1.641
0.85746098 -0.18829904 1.6340001
0.85800856 -0.18598001 1.641
0.85746098 -0.18518668 1.6340001
0.86255431 -0.18428001 1.626
0.85636002 -0.18118286 1.626
0.85522854 -0.18029143 1.618
0.86139238 -0.18029143 1.618
0.86255431 -0.18118286 1.626
0.86073434 -0.17951143 1.6110001
0.86380291 -0.17951143 1.6110001
0.86687142 -0.17951143 1.6110001
0.85746098 -0.18207429 1.6340001
0.86057335 -0.1789619 1.6340001
0.85945719 -0.17808571 1.626
0.86255431 -0.17808571 1.626
0.86565143 -0.17808571 1.626
0.86073434 -0.17644288 1.6110001
0.86380291 -0.17644288 1.6110001
0.86687142 -0.17644288 1.6110001
0.85945719 -0.17498858 1.626
0.86255431 -0.17498858 1.626
0.86565143 -0.17498858 1.626
0.86073434 -0.17337428 1.6110001
0.86380291 -0.17337428 1.6110001
0.86687142 -0.17337428 1.6110001
0.86113429 -0.17972857 1.641
0.85746098 -0.17584954 1.6340001
0.85636002 -0.17498858 1.626
0.85945719 -0.17189144 1.626
0.86255431 -0.17189144 1.626
0.86565143 -0.17189144 1.626
0.86073434 -0.17030573 1.6110001
0.86380291 -0.17030573 1.6110001
0.86687142 -0.17030573 1.6110001
0.86219144 -0.18374571 1.649
0.85746098 -0.17273715 1.6340001
0.85636002 -0.17189144 1.626
0.85746098 -0.16962476 1.6340001
0.85636002 -0.16879429 1.626
0.85945719 -0.16879429 1.626
0.86255431 -0.16879429 1.626
0.86073434 -0.16723713 1.6110001
0.86380291 -0.16723713 1.6110001
0.86687142 -0.16723713 1.6110001
0.86219144 -0.18060477 1.649
0.85800856 -0.17347714 1.641
0.86565143 -0.16879429 1.626
0.86057335 -0.16651239 1.6340001
0.86255431 -0.16569716 1.626
0.86368579 -0.16651239 1.6340001
0.85766572 -0.16416858 1.6110001
0.86073434 -0.16416858 1.6110001
0.86380291 -0.16416858 1.6110001
0.86687142 -0.16416858 1.6110001
0.86738575 -0.19504286 1.6650001
0.86738575 -0.19187143 1.6650001
0.86738575 -0.18870001 1.6650001
0.86219144 -0.17746381 1.649
0.85800856 -0.17035143 1.641
0.86113429 -0.16722572 1.641
0.86057335 -0.16340001 1.6340001
0.86255431 -0.16260001 1.626
0.86139238 -0.1618 1.618
0.86368579 -0.16340001 1.6340001
0.86073434 -0.1611 1.6110001
0.86380291 -0.1611 1.6110001
0.86687142 -0.1611 1.6110001
0.86113429 -0.16410001 1.641
0.86057335 -0.16028762 1.6340001
0.86368579 -0.16028762 1.6340001
0.86255431 -0.15950286 1.626
0.86139238 -0.15871809 1.618
0.86073434 -0.15803143 1.6110001
0.86380291 -0.15803143 1.6110001
0.86687142 -0.15803143 1.6110001
0.86057335 -0.15717524 1.6340001
0.86368579 -0.15717524 1.6340001
0.85831046 -0.15563619 1.618
0.86139238 -0.15563619 1.618
0.86073434 -0.15496285 1.6110001
0.86380291 -0.15496285 1.6110001
0.86687142 -0.15496285 1.6110001
0.86057335 -0.15406287 1.6340001
0.85945719 -0.15330857 1.626
0.85831046 -0.15255429 1.618
0.85766572 -0.1518943 1.6110001
0.86073434 -0.1518943 1.6110001
0.86380291 -0.1518943 1.6110001
0.86687142 -0.1518943 1.6110001
0.86738575 -0.18235715 1.6650001
0.86738575 -0.17918572 1.6650001
0.86637431 -0.1688562 1.6570001
0.86533237 -0.16175905 1.649
0.86057335 -0.15095048 1.6340001
0.85945719 -0.15021142 1.626
0.85831046 -0.14947239 1.618
0.86073434 -0.14882571 1.6110001
0.86380291 -0.14882571 1.6110001
0.86687142 -0.14882571 1.6110001
0.86368579 -0.1478381 1.6340001
0.85340667 -0.14808667 1.603
0.85831046 -0.14639048 1.618
0.85766572 -0.14575715 1.6110001
0.86073434 -0.14575715 1.6110001
0.86380291 -0.14575715 1.6110001
0.86687142 -0.14575715 1.6110001
0.87251914 -0.19371524 1.6810001
0.87251914 -0.19051334 1.6810001
0.87251914 -0.18731144 1.6810001
0.86738575 -0.18552858 1.6650001
0.87251914 -0.18410954 1.6810001
0.87155336 -0.17367335 1.6730001
0.85945719 -0.14401715 1.626
0.85459715 -0.14268857 1.6110001
0.85766572 -0.14268857 1.6110001
0.86073434 -0.14268857 1.6110001
0.85945719 -0.14092 1.626
0.85951334 -0.14198001 1.603
0.86256665 -0.14198001 1.603
0.85459715 -0.13962001 1.6110001
0.85766572 -0.13962001 1.6110001
0.86073434 -0.13962001 1.6110001
0.85945719 -0.13782287 1.626
0.85831046 -0.13714476 1.618
0.86139238 -0.13714476 1.618
0.85951334 -0.13892667 1.603
0.86256665 -0.13892667 1.603
0.86073434 -0.13655142 1.6110001
0.85831046 -0.13406286 1.618
0.86139238 -0.13406286 1.618
0.85951334 -0.13587333 1.603
0.86256665 -0.13587333 1.603
0.87572104 -0.17770573 1.6810001
0.87155336 -0.17048667 1.6730001
0.87251914 -0.17130192 1.6810001
0.87372857 -0.16015714 1.6650001
0.87372857 -0.15698572 1.6650001
0.87164003 -0.19244 1.6980001
0.87487429 -0.19244 1.6980001
0.87397146 -0.19153333 1.6900001
0.86517149 -0.18920572 1.6980001
0.86840576 -0.18920572 1.6980001
0.87164003 -0.18920572 1.6980001
0.87075239 -0.18831429 1.6900001
0.87397146 -0.18831429 1.6900001
0.86840576 -0.18597142 1.6980001
0.87164003 -0.18597142 1.6980001
0.87075239 -0.18509524 1.6900001
0.87397146 -0.18509524 1.6900001
0.87397146 -0.18187618 1.6900001
0.87719053 -0.18187618 1.6900001
0.87719053 -0.17865716 1.6900001
0.86517149 -0.18597142 1.6980001
0.86840576 -0.18273714 1.6980001
0.87164003 -0.18273714 1.6980001
0.87487429 -0.18273714 1.6980001
0.87719053 -0.17543811 1.6900001
0.87164003 -0.17950286 1.6980001
0.87487429 -0.17950286 1.6980001
0.87810862 -0.17950286 1.6980001
0.87397146 -0.17221905 1.6900001
0.87572104 -0.1681 1.6810001
0.87164003 -0.17626858 1.6980001
0.87487429 -0.17626858 1.6980001
0.87810862 -0.17626858 1.6980001
0.87397146 -0.16900001 1.6900001
0.87719053 -0.16900001 1.6900001
0.87892294 -0.1681 1.6810001
0.87572104 -0.1648981 1.6810001
0.87397146 -0.16578096 1.6900001
0.87719053 -0.16578096 1.6900001
0.87892294 -0.1648981 1.6810001
0.87572104 -0.1616962 1.6810001
0.87892294 -0.1616962 1.6810001
0.87251914 -0.15849429 1.6810001
0.87572104 -0.15849429 1.6810001
0.87892294 -0.15849429 1.6810001
0.87164003 -0.1730343 1.6980001
0.87487429 -0.1730343 1.6980001
0.87164003 -0.16980001 1.6980001
0.87487429 -0.16980001 1.6980001
0.87397146 -0.16256191 1.6900001
0.87719053 -0.16256191 1.6900001
0.86931723 -0.15529239 1.6810001
0.87251914 -0.15529239 1.6810001
0.87572104 -0.15529239 1.6810001
0.87892294 -0.15529239 1.6810001
0.87792671 -0.15455334 1.6730001
0.87164003 -0.16656573 1.6980001
0.87487429 -0.16656573 1.6980001
0.87487429 -0.16333143 1.6980001
0.87397146 -0.15934287 1.6900001
0.87075239 -0.15612382 1.6900001
0.86931723 -0.15209047 1.6810001
0.87251914 -0.15209047 1.6810001
0.87251914 -0.14888857 1.6810001
0.86931723 -0.14888857 1.6810001
0.87892294 -0.14888857 1.6810001
0.88212484 -0.14888857 1.6810001
0.86924762 -0.1835981 1.7060001
0.86924762 -0.18034858 1.7060001
0.8724972 -0.18034858 1.7060001
0.86924762 -0.17709905 1.7060001
0.8724972 -0.17709905 1.7060001
0.8724972 -0.17384952 1.7060001
0.8724972 -0.1706 1.7060001
0.8724972 -0.16735047 1.7060001
0.87574673 -0.16410096 1.7060001
0.87164003 -0.16009715 1.6980001
0.87487429 -0.16009715 1.6980001
0.8724972 -0.16410096 1.7060001
0.87164003 -0.15686287 1.6980001
0.87075239 -0.15290476 1.6900001
0.88040954 -0.15290476 1.6900001
0.88362861 -0.15290476 1.6900001
0.88684762 -0.15290476 1.6900001
0.88040954 -0.14968571 1.6900001
0.87892294 -0.14568667 1.6810001
0.89006668 -0.15290476 1.6900001
0.88212484 -0.14568667 1.6810001
0.89006668 -0.14968571 1.6900001
