# .PCD v0.7 - Point Cloud Data file format
VERSION 0.7
FIELDS x y z
SIZE 4 4 4
TYPE F F F
COUNT 1 1 1
WIDTH 177
HEIGHT 1
VIEWPOINT 0 0 0 1 0 0 0
POINTS 177
DATA ascii
0.23775144 0.0096200006 1.4430001
0.2405 0.0096200006 1.4430001
0.23775144 0.012368572 1.4430001
0.2405 0.012368572 1.4430001
0.24292858 0.012214286 1.4250001
0.24564287 0.012214286 1.4250001
0.23500286 0.015117143 1.4430001
0.23775144 0.015117143 1.4430001
0.23850001 0.01499143 1.4310001
0.24122573 0.01499143 1.4310001
0.24292858 0.014928573 1.4250001
0.23500286 0.017865716 1.4430001
0.23676287 0.017791428 1.437
0.23850001 0.017717144 1.4310001
0.24122573 0.017717144 1.4310001
0.23402572 0.020528572 1.437
0.23676287 0.020528572 1.437
0.23850001 0.020442858 1.4310001
0.24122573 0.020442858 1.4310001
0.23402572 0.023265716 1.437
0.23577431 0.023168573 1.4310001
0.24122573 0.023168573 1.4310001
0.24292858 0.017642858 1.4250001
0.23304859 0.025894288 1.4310001
0.23577431 0.025894288 1.4310001
0.24564287 0.017642858 1.4250001
0.24292858 0.020357145 1.4250001
0.24460858 0.014865714 1.419
0.24522002 0.014740001 1.4070001
0.24790001 0.014740001 1.4070001
0.24731143 0.017568571 1.419
0.25001431 0.017568571 1.419
0.25271714 0.017568571 1.419
0.25703144 0.017494287 1.4130001
0.24564287 0.020357145 1.4250001
0.24731143 0.020271428 1.419
0.25001431 0.020271428 1.419
0.25271714 0.020271428 1.419
0.25433999 0.020185716 1.4130001
0.25812283 0.020271428 1.419
0.23750001 0.023071429 1.4250001
0.24292858 0.023071429 1.4250001
0.24564287 0.023071429 1.4250001
0.24731143 0.022974286 1.419
0.25001431 0.022974286 1.419
0.25271714 0.022974286 1.419
0.25542 0.022974286 1.419
0.25812283 0.022974286 1.419
0.23750001 0.025785714 1.4250001
0.24021429 0.025785714 1.4250001
0.24292858 0.025785714 1.4250001
0.24564287 0.025785714 1.4250001
0.24835716 0.025785714 1.4250001
0.25001431 0.025677143 1.419
0.25271714 0.025677143 1.419
0.25542 0.025677143 1.419
0.23577431 0.028620003 1.4310001
0.23750001 0.0285 1.4250001
0.24021429 0.0285 1.4250001
0.24292858 0.0285 1.4250001
0.24564287 0.0285 1.4250001
0.24835716 0.0285 1.4250001
0.25107142 0.0285 1.4250001
0.25271714 0.028379999 1.419
0.23750001 0.031214288 1.4250001
0.24021429 0.031214288 1.4250001
0.24292858 0.031214288 1.4250001
0.24564287 0.031214288 1.4250001
0.24835716 0.031214288 1.4250001
0.25972286 0.017494287 1.4130001
0.26082572 0.022974286 1.419
0.25812283 0.025677143 1.419
0.25650001 0.0285 1.4250001
0.25107142 0.031214288 1.4250001
0.23304859 0.028620003 1.4310001
0.23478572 0.031214288 1.4250001
0.25378573 0.031214288 1.4250001
0.25650001 0.031214288 1.4250001
0.25812283 0.028379999 1.419
0.25972286 0.020185716 1.4130001
0.26352859 0.022974286 1.419
0.26082572 0.025677143 1.419
0.26082572 0.028379999 1.419
0.25812283 0.031082857 1.419
0.26241431 0.017494287 1.4130001
0.26241431 0.020185716 1.4130001
0.26398 0.017419999 1.4070001
0.26510572 0.020185716 1.4130001
0.26510572 0.022877144 1.4130001
0.26352859 0.025677143 1.419
0.26352859 0.028379999 1.419
0.26082572 0.031082857 1.419
0.26779714 0.020185716 1.4130001
0.26779714 0.022877144 1.4130001
0.26623142 0.025677143 1.419
0.26623142 0.028379999 1.419
0.27048859 0.020185716 1.4130001
0.27048859 0.022877144 1.4130001
0.26893428 0.025677143 1.419
0.26893428 0.028379999 1.419
0.26464286 0.031214288 1.4250001
0.26623142 0.031082857 1.419
0.26779714 0.017494287 1.4130001
0.27048859 0.017494287 1.4130001
0.27318001 0.020185716 1.4130001
0.27470002 0.020100001 1.4070001
0.27318001 0.022877144 1.4130001
0.27587143 0.022877144 1.4130001
0.27163714 0.025677143 1.419
0.27163714 0.028379999 1.419
0.26893428 0.031082857 1.419
0.27434 0.025677143 1.419
0.27587143 0.025568573 1.4130001
0.27434 0.028379999 1.419
0.27163714 0.031082857 1.419
0.27434 0.031082857 1.419
0.27704287 0.028379999 1.419
0.27856287 0.022877144 1.4130001
0.27856287 0.025568573 1.4130001
0.27856287 0.028260002 1.4130001
0.27587143 0.030951429 1.4130001
0.28125429 0.025568573 1.4130001
0.28125429 0.028260002 1.4130001
0.27856287 0.030951429 1.4130001
0.27639431 0.020028573 1.4020001
0.28125429 0.022877144 1.4130001
0.27202001 0.017419999 1.4070001
0.27906477 0.020028573 1.4020001
0.28394574 0.020185716 1.4130001
0.28125429 0.030951429 1.4130001
0.28663716 0.020185716 1.4130001
0.28515142 0.022974286 1.419
0.28515142 0.028379999 1.419
0.28515142 0.031082857 1.419
0.28785428 0.022974286 1.419
0.2881 0.022780001 1.4070001
0.28785428 0.025677143 1.419
0.28663716 0.030951429 1.4130001
0.28785428 0.028379999 1.419
0.2881 0.028140001 1.4070001
0.28635716 0.025785714 1.4250001
0.29078001 0.022780001 1.4070001
0.29055715 0.025677143 1.419
0.29078001 0.025460001 1.4070001
0.2881 0.030819999 1.4070001
0.29241717 0.022699049 1.4020001
0.29241717 0.025369523 1.4020001
0.29078001 0.028140001 1.4070001
0.29078001 0.030819999 1.4070001
0.29241717 0.028040001 1.4020001
0.29241717 0.030710477 1.4020001
0.29508764 0.028040001 1.4020001
0.29775813 0.028040001 1.4020001
0.29508764 0.030710477 1.4020001
0.29775813 0.030710477 1.4020001
0.28707621 0.020028573 1.4020001
0.28974667 0.020028573 1.4020001
0.29508764 0.022699049 1.4020001
0.29508764 0.025369523 1.4020001
0.29775813 0.025369523 1.4020001
0.29775813 0.022699049 1.4020001
0.30042857 0.022699049 1.4020001
0.30042857 0.025369523 1.4020001
0.30042857 0.028040001 1.4020001
0.30309907 0.025369523 1.4020001
0.30446097 0.025260951 1.396
0.30309907 0.028040001 1.4020001
0.30042857 0.030710477 1.4020001
0.30309907 0.030710477 1.4020001
0.30576953 0.030710477 1.4020001
0.30712 0.025260951 1.396
0.30446097 0.02792 1.396
0.30712 0.02792 1.396
0.30712 0.030579049 1.396
0.30977905 0.030579049 1.396
0.30180189 0.022601904 1.396
0.30446097 0.022601904 1.396
