# .PCD v0.7 - Point Cloud Data file format
VERSION 0.7
FIELDS x y z
SIZE 4 4 4
TYPE F F F
COUNT 1 1 1
WIDTH 187
HEIGHT 1
VIEWPOINT 0 0 0 1 0 0 0
POINTS 187
DATA ascii
1.0911086 -0.93421715 2.4960001
1.08796 -0.92748004 2.4780002
1.1006172 -0.93421715 2.4960001
1.1053715 -0.93421715 2.4960001
1.1101258 -0.93421715 2.4960001
1.0816001 -0.92946291 2.4960001
1.0863543 -0.92946291 2.4960001
1.0911086 -0.92946291 2.4960001
1.0958629 -0.92946291 2.4960001
1.1006172 -0.92946291 2.4960001
1.1053715 -0.92946291 2.4960001
1.1101258 -0.92946291 2.4960001
1.0846114 -0.93137717 2.5140002
1.0816001 -0.9247086 2.4960001
1.0863543 -0.9247086 2.4960001
1.0911086 -0.9247086 2.4960001
1.0958629 -0.9247086 2.4960001
1.1006172 -0.9247086 2.4960001
1.1053715 -0.9247086 2.4960001
1.11488 -0.93421715 2.4960001
1.1196343 -0.93421715 2.4960001
1.11488 -0.92946291 2.4960001
1.1101258 -0.9247086 2.4960001
1.11488 -0.9247086 2.4960001
1.0989772 -0.92658865 2.5140002
1.1243886 -0.93421715 2.4960001
1.1243886 -0.92946291 2.4960001
1.1291429 -0.93421715 2.4960001
1.1291429 -0.92946291 2.4960001
1.0750344 -0.92658865 2.5140002
1.0798229 -0.92658865 2.5140002
1.1181315 -0.92658865 2.5140002
1.0702457 -0.93137717 2.5140002
1.0750344 -0.93137717 2.5140002
1.0798229 -0.93137717 2.5140002
1.0654572 -0.92658865 2.5140002
1.0702457 -0.92658865 2.5140002
1.1338972 -0.93421715 2.4960001
1.1386514 -0.93421715 2.4960001
1.1386514 -0.92946291 2.4960001
1.1277087 -0.93137717 2.5140002
1.12292 -0.92658865 2.5140002
1.1434058 -0.93421715 2.4960001
1.1434058 -0.92946291 2.4960001
1.1324972 -0.93137717 2.5140002
1.1386514 -0.9247086 2.4960001
1.1277087 -0.92658865 2.5140002
1.1434058 -0.9247086 2.4960001
1.1324972 -0.92658865 2.5140002
1.14816 -0.93421715 2.4960001
1.14816 -0.92946291 2.4960001
1.1372857 -0.93137717 2.5140002
1.14816 -0.9247086 2.4960001
1.1372857 -0.92658865 2.5140002
1.0558801 -0.92658865 2.5140002
1.0510916 -0.93137717 2.5140002
1.0558801 -0.93137717 2.5140002
1.0510916 -0.92658865 2.5140002
1.0463029 -0.92658865 2.5140002
1.1529143 -0.93421715 2.4960001
1.1529143 -0.92946291 2.4960001
1.1420743 -0.93137717 2.5140002
1.1576686 -0.93421715 2.4960001
1.1576686 -0.92946291 2.4960001
1.1529143 -0.9247086 2.4960001
1.1420743 -0.92658865 2.5140002
1.1576686 -0.9247086 2.4960001
1.1468629 -0.92658865 2.5140002
1.1624229 -0.93421715 2.4960001
1.1624229 -0.92946291 2.4960001
1.1624229 -0.9247086 2.4960001
1.1516515 -0.92658865 2.5140002
1.1671771 -0.93421715 2.4960001
1.1671771 -0.9247086 2.4960001
1.15644 -0.92658865 2.5140002
1.0367259 -0.92658865 2.5140002
1.0415144 -0.92658865 2.5140002
1.0319372 -0.93137717 2.5140002
1.0367259 -0.93137717 2.5140002
1.0415144 -0.93137717 2.5140002
1.0463029 -0.93137717 2.5140002
1.0319372 -0.92658865 2.5140002
1.0271486 -0.92658865 2.5140002
1.1719315 -0.93421715 2.4960001
1.1719315 -0.92946291 2.4960001
1.1719315 -0.9247086 2.4960001
1.1612285 -0.92658865 2.5140002
1.1766857 -0.93421715 2.4960001
1.1766857 -0.92946291 2.4960001
1.1587601 -0.92276007 2.4780002
1.1766857 -0.9247086 2.4960001
1.1660173 -0.92658865 2.5140002
1.1814401 -0.93421715 2.4960001
1.1814401 -0.92946291 2.4960001
1.1814401 -0.9247086 2.4960001
1.1861943 -0.93421715 2.4960001
1.1861943 -0.92946291 2.4960001
1.0127829 -0.92658865 2.5140002
1.0197943 -0.9247086 2.4960001
1.0079943 -0.92658865 2.5140002
1.1909485 -0.93421715 2.4960001
1.1909485 -0.92946291 2.4960001
1.1909485 -0.9247086 2.4960001
1.1957029 -0.92946291 2.4960001
1.0055314 -0.9247086 2.4960001
1.0102857 -0.9247086 2.4960001
1.01504 -0.9247086 2.4960001
0.99362862 -0.92658865 2.5140002
0.99841726 -0.92658865 2.5140002
1.0032058 -0.92658865 2.5140002
1.1947486 -0.93137717 2.5140002
1.1947486 -0.92658865 2.5140002
0.9862743 -0.92357719 2.5320001
0.99109709 -0.92357719 2.5320001
0.99592006 -0.92357719 2.5320001
1.2043258 -0.93137717 2.5140002
1.2091143 -0.93137717 2.5140002
1.213903 -0.93137717 2.5140002
1.2091143 -0.92658865 2.5140002
1.213903 -0.92658865 2.5140002
0.9669829 -0.92357719 2.5320001
0.97180569 -0.92357719 2.5320001
0.97662866 -0.92357719 2.5320001
0.98145145 -0.92357719 2.5320001
1.2186915 -0.93137717 2.5140002
1.22348 -0.93137717 2.5140002
1.2186915 -0.92658865 2.5140002
1.22348 -0.92658865 2.5140002
1.2282686 -0.92658865 2.5140002
1.2330573 -0.93137717 2.5140002
1.2330573 -0.92658865 2.5140002
0.96215999 -0.92357719 2.5320001
1.2378458 -0.93137717 2.5140002
1.2378458 -0.92658865 2.5140002
1.2426344 -0.93137717 2.5140002
1.2426344 -0.92658865 2.5140002
1.2474229 -0.92658865 2.5140002
1.2474229 -0.93137717 2.5140002
0.94286859 -0.92357719 2.5320001
0.93616575 -0.92180008 2.5140002
0.94095433 -0.92180008 2.5140002
0.94574291 -0.92180008 2.5140002
0.95053148 -0.92180008 2.5140002
0.92357719 -0.92357719 2.5320001
0.92839998 -0.92357719 2.5320001
0.93322289 -0.92357719 2.5320001
0.93804568 -0.92357719 2.5320001
0.93137717 -0.92180008 2.5140002
0.90428573 -0.92357719 2.5320001
0.90910858 -0.92357719 2.5320001
0.91393149 -0.92357719 2.5320001
0.91875428 -0.92357719 2.5320001
0.9305076 -0.92078954 2.5510001
0.88499427 -0.92357719 2.5320001
0.88981718 -0.92357719 2.5320001
0.89464003 -0.92357719 2.5320001
0.89946288 -0.92357719 2.5320001
0.86570287 -0.92357719 2.5320001
0.87052572 -0.92357719 2.5320001
0.87534857 -0.92357719 2.5320001
0.88017148 -0.92357719 2.5320001
0.88191718 -0.92078954 2.5510001
0.86088002 -0.92357719 2.5320001
0.86734003 -0.92078954 2.5510001
0.87219906 -0.92078954 2.5510001
0.87705815 -0.92078954 2.5510001
0.85276288 -0.92078954 2.5510001
0.84932381 -0.91785717 2.5700002
0.82974291 -0.91785717 2.5700002
0.83463812 -0.91785717 2.5700002
0.83953339 -0.91785717 2.5700002
0.84442866 -0.91785717 2.5700002
0.83463812 -0.91296196 2.5700002
0.84442866 -0.91296196 2.5700002
0.81016195 -0.91785717 2.5700002
0.81505722 -0.91785717 2.5700002
0.8248477 -0.91785717 2.5700002
0.81505722 -0.91296196 2.5700002
0.81995243 -0.91296196 2.5700002
0.8248477 -0.91296196 2.5700002
0.82974291 -0.91296196 2.5700002
0.80037147 -0.91785717 2.5700002
0.80526668 -0.91785717 2.5700002
0.80037147 -0.91296196 2.5700002
0.80526668 -0.91296196 2.5700002
0.81016195 -0.91296196 2.5700002
0.82601434 -0.90984863 2.5890002
