# .PCD v0.7 - Point Cloud Data file format
VERSION 0.7
FIELDS x y z
SIZE 4 4 4
TYPE F F F
COUNT 1 1 1
WIDTH 533
HEIGHT 1
VIEWPOINT 0 0 0 1 0 0 0
POINTS 533
DATA ascii
0.72493428 0.10435715 1.4610001
0.72771716 0.10435715 1.4610001
0.73088861 0.10802 1.473
0.7307058 0.10758001 1.4670001
0.73350006 0.10758001 1.4670001
0.73088861 0.11082572 1.473
0.7307058 0.11037429 1.4670001
0.73350006 0.11037429 1.4670001
0.73154283 0.10853333 1.48
0.73179054 0.11225525 1.4920001
0.73167813 0.11180381 1.4860001
0.73450857 0.11180381 1.4860001
0.73436189 0.11417143 1.48
0.73718101 0.11417143 1.48
0.74000001 0.11417143 1.48
0.73167813 0.11746477 1.4860001
0.74000001 0.11699048 1.48
0.73463243 0.11509714 1.4920001
0.73747438 0.11509714 1.4920001
0.73179054 0.11793905 1.4920001
0.73747438 0.11793905 1.4920001
0.74031621 0.11793905 1.4920001
0.7431581 0.11793905 1.4920001
0.74031621 0.12078096 1.4920001
0.73578858 0.11330858 1.506
0.73522383 0.11563715 1.4990001
0.73865718 0.1219143 1.506
0.73807907 0.12134763 1.4990001
0.74093431 0.12134763 1.4990001
0.7431581 0.12078096 1.4920001
0.74378955 0.12420286 1.4990001
0.73865718 0.12478286 1.506
0.74152577 0.12478286 1.506
0.7443943 0.12478286 1.506
0.74664479 0.12420286 1.4990001
0.73872006 0.11664001 1.5120001
0.73635334 0.12007333 1.5190001
0.73924673 0.12007333 1.5190001
0.73872006 0.11952001 1.5120001
0.73872006 0.1224 1.5120001
0.73924673 0.12586001 1.5190001
0.73872006 0.12528001 1.5120001
0.73872006 0.12816 1.5120001
0.74160004 0.12816 1.5120001
0.74448001 0.12816 1.5120001
0.74735999 0.12816 1.5120001
0.74160004 0.13104001 1.5120001
0.73635715 0.1234524 1.5250001
0.73926193 0.1234524 1.5250001
0.7421667 0.1234524 1.5250001
0.73635715 0.12635714 1.5250001
0.73926193 0.12635714 1.5250001
0.73924673 0.12875333 1.5190001
0.75024003 0.12816 1.5120001
0.75312006 0.12816 1.5120001
0.75600004 0.12816 1.5120001
0.73635334 0.13164666 1.5190001
0.73924673 0.13164666 1.5190001
0.74214 0.13164666 1.5190001
0.74448001 0.13104001 1.5120001
0.75312006 0.13104001 1.5120001
0.73635334 0.13453999 1.5190001
0.73924673 0.13453999 1.5190001
0.74214 0.13453999 1.5190001
0.74160004 0.13392001 1.5120001
0.74448001 0.13392001 1.5120001
0.74735999 0.13392001 1.5120001
0.75024003 0.13392001 1.5120001
0.75312006 0.13392001 1.5120001
0.74448001 0.13680001 1.5120001
0.74448001 0.13968 1.5120001
0.75600004 0.13104001 1.5120001
0.73635715 0.12926191 1.5250001
0.73926193 0.12926191 1.5250001
0.75082004 0.13164666 1.5190001
0.73635334 0.13743334 1.5190001
0.73924673 0.13743334 1.5190001
0.74214 0.13743334 1.5190001
0.74503338 0.13743334 1.5190001
0.74448001 0.14256001 1.5120001
0.75371337 0.13164666 1.5190001
0.75600004 0.13392001 1.5120001
0.74735999 0.14256001 1.5120001
0.75082004 0.13743334 1.5190001
0.7421667 0.11764286 1.5250001
0.73681909 0.13277334 1.5320001
0.73635715 0.13216667 1.5250001
0.73635715 0.13507144 1.5250001
0.73635715 0.1379762 1.5250001
0.73635334 0.14032666 1.5190001
0.73924673 0.14032666 1.5190001
0.74214 0.14032666 1.5190001
0.73681909 0.13569143 1.5320001
0.73681909 0.13860953 1.5320001
0.75371337 0.13743334 1.5190001
0.73635715 0.14088096 1.5250001
0.74503338 0.14032666 1.5190001
0.75082004 0.14032666 1.5190001
0.73926193 0.14378572 1.5250001
0.73924673 0.14322001 1.5190001
0.74214 0.14322001 1.5190001
0.74503338 0.14322001 1.5190001
0.74214 0.14611334 1.5190001
0.74448001 0.14544 1.5120001
0.74735999 0.14544 1.5120001
0.7566067 0.13743334 1.5190001
0.75371337 0.14032666 1.5190001
0.74503338 0.14611334 1.5190001
0.75024003 0.14544 1.5120001
0.75950003 0.13743334 1.5190001
0.7566067 0.14032666 1.5190001
0.75371337 0.14322001 1.5190001
0.75312006 0.14544 1.5120001
0.76239336 0.13743334 1.5190001
0.75950003 0.14032666 1.5190001
0.7566067 0.14322001 1.5190001
0.73924673 0.14900666 1.5190001
0.74214 0.14900666 1.5190001
0.74503338 0.14900666 1.5190001
0.74448001 0.14832 1.5120001
0.74735999 0.14832 1.5120001
0.75024003 0.14832 1.5120001
0.74018574 0.12751715 1.539
0.73725426 0.13044858 1.539
0.74018574 0.13044858 1.539
0.73725426 0.13338 1.539
0.73139143 0.13631143 1.539
0.73432285 0.13631143 1.539
0.73725426 0.13631143 1.539
0.73681909 0.14152762 1.5320001
0.73139143 0.13924286 1.539
0.73432285 0.13924286 1.539
0.73725426 0.13924286 1.539
0.73681909 0.14444572 1.5320001
0.73973721 0.14444572 1.5320001
0.73926193 0.14669049 1.5250001
0.7421667 0.14669049 1.5250001
0.76239336 0.14032666 1.5190001
0.75950003 0.14322001 1.5190001
0.75312006 0.14832 1.5120001
0.73973721 0.14736381 1.5320001
0.7421667 0.15250002 1.5250001
0.74503338 0.15190001 1.5190001
0.74448001 0.15120001 1.5120001
0.74507147 0.15250002 1.5250001
0.74735999 0.15120001 1.5120001
0.74503338 0.15479334 1.5190001
0.74792665 0.15479334 1.5190001
0.75082004 0.15479334 1.5190001
0.74503338 0.15768667 1.5190001
0.74792665 0.15768667 1.5190001
0.73139143 0.14217429 1.539
0.73432285 0.14217429 1.539
0.73725426 0.14217429 1.539
0.74265528 0.15028191 1.5320001
0.74507147 0.15540476 1.5250001
0.75082004 0.15768667 1.5190001
0.74018574 0.12165429 1.539
0.74311715 0.12165429 1.539
0.73177338 0.13398667 1.5460001
0.73471814 0.13398667 1.5460001
0.73766291 0.13398667 1.5460001
0.72882867 0.13693143 1.5460001
0.73177338 0.13693143 1.5460001
0.72882867 0.1398762 1.5460001
0.73177338 0.1398762 1.5460001
0.72882867 0.14282095 1.5460001
0.73177338 0.14282095 1.5460001
0.73177338 0.14576572 1.5460001
0.73471814 0.14576572 1.5460001
0.73432285 0.14510572 1.539
0.73725426 0.14510572 1.539
0.73725426 0.14803715 1.539
0.74018574 0.14803715 1.539
0.73725426 0.15096857 1.539
0.74018574 0.15096857 1.539
0.74265528 0.1532 1.5320001
0.73973721 0.15611811 1.5320001
0.74507147 0.15830953 1.5250001
0.73471814 0.14871049 1.5460001
0.73766291 0.14871049 1.5460001
0.74311715 0.15096857 1.539
0.73725426 0.1539 1.539
0.74018574 0.1539 1.539
0.73471814 0.15165524 1.5460001
0.73766291 0.15165524 1.5460001
0.74311715 0.1539 1.539
0.73725426 0.15683143 1.539
0.74018574 0.15683143 1.539
0.74265528 0.15611811 1.5320001
0.7455734 0.15611811 1.5320001
0.73973721 0.15903619 1.5320001
0.74265528 0.15903619 1.5320001
0.7455734 0.15903619 1.5320001
0.7291705 0.12867714 1.5530001
0.73212862 0.12867714 1.5530001
0.73508674 0.12867714 1.5530001
0.7380448 0.12867714 1.5530001
0.73766291 0.12809716 1.5460001
0.74060768 0.12809716 1.5460001
0.7291705 0.13163525 1.5530001
0.73212862 0.13163525 1.5530001
0.73177338 0.13104191 1.5460001
0.73471814 0.13104191 1.5460001
0.73766291 0.13104191 1.5460001
0.73212862 0.13459334 1.5530001
0.73212862 0.14642572 1.5530001
0.73212862 0.14938381 1.5530001
0.73508674 0.14938381 1.5530001
0.73471814 0.15460001 1.5460001
0.73766291 0.15460001 1.5460001
0.73725426 0.15976286 1.539
0.74018574 0.15976286 1.539
0.73212862 0.15234192 1.5530001
0.73508674 0.15234192 1.5530001
0.73471814 0.15754478 1.5460001
0.73766291 0.15754478 1.5460001
0.73212862 0.15530001 1.5530001
0.73508674 0.15530001 1.5530001
0.72293907 0.12220763 1.5460001
0.72588384 0.12220763 1.5460001
0.72882867 0.12220763 1.5460001
0.73508674 0.12276095 1.5530001
0.74396098 0.12276095 1.5530001
0.7291705 0.12571906 1.5530001
0.73212862 0.12571906 1.5530001
0.73508674 0.12571906 1.5530001
0.7380448 0.12571906 1.5530001
0.73766291 0.12515238 1.5460001
0.74060768 0.12515238 1.5460001
0.74355239 0.12515238 1.5460001
0.73245716 0.13520001 1.5600001
0.73245716 0.13817143 1.5600001
0.72948575 0.14114286 1.5600001
0.73245716 0.14114286 1.5600001
0.73245716 0.14411429 1.5600001
0.73245716 0.15005715 1.5600001
0.72948575 0.15302858 1.5600001
0.73245716 0.15302858 1.5600001
0.73212862 0.1582581 1.5530001
0.73508674 0.1582581 1.5530001
0.72948575 0.156 1.5600001
0.73245716 0.156 1.5600001
0.72948575 0.15897144 1.5600001
0.73245716 0.15897144 1.5600001
0.7380448 0.1612162 1.5530001
0.74100286 0.1612162 1.5530001
0.7380448 0.16417429 1.5530001
0.74100286 0.16417429 1.5530001
0.72678953 0.12983716 1.567
0.7297743 0.12983716 1.567
0.72948575 0.12925714 1.5600001
0.7297743 0.1328219 1.567
0.72948575 0.13222858 1.5600001
0.7297743 0.13580666 1.567
0.73275906 0.13580666 1.567
0.7297743 0.13879143 1.567
0.73275906 0.13879143 1.567
0.72678953 0.14177619 1.567
0.7297743 0.14177619 1.567
0.72678953 0.14476095 1.567
0.7297743 0.14476095 1.567
0.73275906 0.14476095 1.567
0.72678953 0.14774571 1.567
0.7297743 0.14774571 1.567
0.73275906 0.14774571 1.567
0.73574382 0.14774571 1.567
0.72678953 0.15073048 1.567
0.7297743 0.15073048 1.567
0.73275906 0.15073048 1.567
0.72678953 0.15371524 1.567
0.7297743 0.15371524 1.567
0.72678953 0.1567 1.567
0.7297743 0.1567 1.567
0.7297743 0.15968476 1.567
0.72678953 0.15968476 1.567
0.72621244 0.12571906 1.5530001
0.74137139 0.12331429 1.5600001
0.7297743 0.12386762 1.567
0.74434292 0.12331429 1.5600001
0.7297743 0.12685239 1.567
0.72703815 0.13641334 1.5740001
0.73003626 0.13641334 1.5740001
0.72703815 0.13941143 1.5740001
0.73003626 0.13941143 1.5740001
0.72104198 0.14240953 1.5740001
0.72404003 0.14240953 1.5740001
0.72703815 0.14240953 1.5740001
0.72404003 0.14540763 1.5740001
0.72703815 0.14540763 1.5740001
0.72703815 0.14840573 1.5740001
0.72104198 0.14540763 1.5740001
0.72404003 0.14840573 1.5740001
0.72104198 0.14840573 1.5740001
0.72104198 0.15140381 1.5740001
0.72404003 0.15140381 1.5740001
0.72703815 0.15140381 1.5740001
0.72703815 0.15440191 1.5740001
0.72123718 0.13099715 1.5810001
0.72104198 0.13041714 1.5740001
0.72404003 0.13041714 1.5740001
0.72703815 0.13041714 1.5740001
0.72424865 0.13400859 1.5810001
0.72726005 0.13400859 1.5810001
0.73027146 0.13400859 1.5810001
0.73003626 0.13341525 1.5740001
0.72123718 0.13702001 1.5810001
0.72424865 0.13702001 1.5810001
0.72726005 0.13702001 1.5810001
0.72424865 0.14003143 1.5810001
0.72726005 0.14003143 1.5810001
0.72123718 0.1460543 1.5810001
0.72123718 0.14906572 1.5810001
0.72123718 0.15207715 1.5810001
0.72424865 0.15508857 1.5810001
0.72726005 0.15508857 1.5810001
0.72123718 0.15508857 1.5810001
0.72726005 0.15810001 1.5810001
0.73027146 0.15810001 1.5810001
0.73003626 0.12741905 1.5740001
0.73027146 0.12798572 1.5810001
0.72186005 0.13771334 1.5890001
0.72186005 0.14074001 1.5890001
0.72488672 0.14074001 1.5890001
0.72488672 0.14376669 1.5890001
0.72186005 0.14982 1.5890001
0.72186005 0.15284668 1.5890001
0.72488672 0.15890001 1.5890001
0.72791332 0.15890001 1.5890001
0.73094004 0.16192667 1.5890001
0.73396671 0.16192667 1.5890001
0.73094004 0.16495334 1.5890001
0.73396671 0.16495334 1.5890001
0.72186005 0.13166001 1.5890001
0.72504002 0.13528 1.5960001
0.72488672 0.13468666 1.5890001
0.72504002 0.14440002 1.5960001
0.72504002 0.14744002 1.5960001
0.722 0.15352002 1.5960001
0.722 0.15656 1.5960001
0.72504002 0.15656 1.5960001
0.722 0.1596 1.5960001
0.72504002 0.1596 1.5960001
0.72807997 0.16264001 1.5960001
0.73111999 0.16264001 1.5960001
0.72504002 0.16568001 1.5960001
0.72807997 0.16568001 1.5960001
0.73111999 0.16568001 1.5960001
0.72504002 0.16872001 1.5960001
0.72807997 0.16872001 1.5960001
0.72516668 0.13892667 1.603
0.72516668 0.14198001 1.603
0.72516668 0.14503333 1.603
0.72516668 0.14808667 1.603
0.72516668 0.15114 1.603
0.71906 0.15419333 1.603
0.72211331 0.15419333 1.603
0.72211331 0.15724668 1.603
0.71906 0.15724668 1.603
0.71906 0.1603 1.603
0.72211331 0.1603 1.603
0.71906 0.16335334 1.603
0.72211331 0.16335334 1.603
0.72516668 0.16335334 1.603
0.71600664 0.16335334 1.603
0.72822005 0.16335334 1.603
0.71906 0.16640668 1.603
0.72211331 0.16640668 1.603
0.72516668 0.16640668 1.603
0.71600664 0.16640668 1.603
0.71600664 0.16946 1.603
0.71906 0.16946 1.603
0.72211331 0.16946 1.603
0.72516668 0.16946 1.603
0.72516668 0.13587333 1.603
0.72571719 0.1518943 1.6110001
0.71957999 0.15496285 1.6110001
0.71651143 0.15496285 1.6110001
0.71957999 0.15803143 1.6110001
0.71344292 0.1611 1.6110001
0.71651143 0.1611 1.6110001
0.71957999 0.1611 1.6110001
0.71651143 0.16416858 1.6110001
0.71344292 0.16416858 1.6110001
0.71651143 0.16723713 1.6110001
0.7103743 0.16416858 1.6110001
0.71344292 0.16723713 1.6110001
0.71651143 0.17030573 1.6110001
0.71344292 0.17030573 1.6110001
0.72887051 0.14330857 1.618
0.72887051 0.14639048 1.618
0.72578859 0.14947239 1.618
0.72887051 0.14947239 1.618
0.72578859 0.15255429 1.618
0.71654284 0.15563619 1.618
0.71962476 0.15871809 1.618
0.71654284 0.15871809 1.618
0.71037906 0.15871809 1.618
0.71346098 0.15871809 1.618
0.71037906 0.1618 1.618
0.71346098 0.1618 1.618
0.7103743 0.16723713 1.6110001
0.71037906 0.16488191 1.618
0.70421523 0.17412762 1.618
0.72318292 0.15330857 1.626
0.72627997 0.15330857 1.626
0.71079433 0.15950286 1.626
0.71079433 0.16260001 1.626
0.70769715 0.16260001 1.626
0.71079433 0.16569716 1.626
0.71389145 0.16879429 1.626
0.70769715 0.16569716 1.626
0.70460004 0.16879429 1.626
0.70769715 0.16879429 1.626
0.71079433 0.16879429 1.626
0.70769715 0.17189144 1.626
0.71079433 0.17189144 1.626
0.71389145 0.17189144 1.626
0.71698856 0.17189144 1.626
0.70421523 0.17720953 1.618
0.71079433 0.17498858 1.626
0.71389145 0.17498858 1.626
0.71698856 0.17498858 1.626
0.70460004 0.17189144 1.626
0.71079433 0.17808571 1.626
0.71389145 0.17808571 1.626
0.70460004 0.17498858 1.626
0.70150286 0.17498858 1.626
0.70460004 0.17808571 1.626
0.72674096 0.14472573 1.6340001
0.72627997 0.14401715 1.626
0.72937715 0.14401715 1.626
0.72362864 0.1478381 1.6340001
0.72674096 0.1478381 1.6340001
0.72627997 0.14711429 1.626
0.72937715 0.14711429 1.626
0.72362864 0.15095048 1.6340001
0.72318292 0.15021142 1.626
0.72627997 0.15021142 1.626
0.72362864 0.15406287 1.6340001
0.7205162 0.15406287 1.6340001
0.71740383 0.15717524 1.6340001
0.7205162 0.15717524 1.6340001
0.71117908 0.16028762 1.6340001
0.7080667 0.16340001 1.6340001
0.7080667 0.16651239 1.6340001
0.70495433 0.16651239 1.6340001
0.70184189 0.16962476 1.6340001
0.70495433 0.16962476 1.6340001
0.69530863 0.17189144 1.626
0.69840574 0.17498858 1.626
0.70184189 0.17273715 1.6340001
0.70495433 0.17273715 1.6340001
0.69530863 0.17498858 1.626
0.69840574 0.17808571 1.626
0.70150286 0.17808571 1.626
0.69561714 0.17584954 1.6340001
0.72047716 0.15472285 1.641
0.71422571 0.15784857 1.641
0.71735144 0.15784857 1.641
0.71110004 0.16097429 1.641
0.70797426 0.16410001 1.641
0.70484859 0.16722572 1.641
0.69561714 0.16962476 1.6340001
0.69872952 0.16962476 1.6340001
0.69561714 0.17273715 1.6340001
0.72398955 0.1460543 1.649
0.72360289 0.14534572 1.641
0.72672856 0.14534572 1.641
0.72398955 0.14919524 1.649
0.72360289 0.14847143 1.641
0.71770763 0.1523362 1.649
0.72084862 0.1523362 1.649
0.72047716 0.15159714 1.641
0.72360289 0.15159714 1.641
0.72084862 0.15547715 1.649
0.71770763 0.15547715 1.649
0.71142572 0.16175905 1.649
0.7082848 0.1649 1.649
0.70514381 0.16804096 1.649
0.71487719 0.15623143 1.6570001
0.71803337 0.15623143 1.6570001
0.71172094 0.15938763 1.6570001
0.71487719 0.15938763 1.6570001
0.71803337 0.15938763 1.6570001
0.71172094 0.16254382 1.6570001
0.70856482 0.16254382 1.6570001
0.70540857 0.1657 1.6570001
0.70856482 0.1657 1.6570001
0.70540857 0.1688562 1.6570001
0.7183286 0.14747143 1.6650001
0.72149998 0.14747143 1.6650001
0.72467142 0.14747143 1.6650001
0.72434574 0.14676286 1.6570001
0.71515715 0.15064286 1.6650001
0.7183286 0.15064286 1.6650001
0.72149998 0.15064286 1.6650001
0.72118956 0.14991905 1.6570001
0.72434574 0.14991905 1.6570001
0.71515715 0.15381429 1.6650001
0.7183286 0.15381429 1.6650001
0.71803337 0.15307523 1.6570001
0.71515715 0.15698572 1.6650001
0.71198571 0.15381429 1.6650001
0.70881432 0.15698572 1.6650001
0.71198571 0.15698572 1.6650001
0.70881432 0.16015714 1.6650001
0.71198571 0.16015714 1.6650001
0.70881432 0.16332857 1.6650001
0.70247144 0.16332857 1.6650001
0.70564288 0.16332857 1.6650001
0.70247144 0.16650002 1.6650001
0.70564288 0.16650002 1.6650001
0.70564288 0.16967145 1.6650001
0.69929999 0.16650002 1.6650001
0.70903337 0.15774001 1.6730001
0.69929999 0.16015714 1.6650001
0.70584667 0.16092667 1.6730001
0.70903337 0.16092667 1.6730001
0.69929999 0.16332857 1.6650001
0.71859342 0.14818001 1.6730001
0.71540672 0.15136668 1.6730001
0.71242386 0.15529239 1.6810001
0.71222007 0.15455334 1.6730001
0.70266002 0.15774001 1.6730001
0.70922196 0.15849429 1.6810001
0.72267616 0.14968571 1.6900001
0.71945721 0.15290476 1.6900001
0.71301907 0.15612382 1.6900001
0.7098 0.15612382 1.6900001
0.71962863 0.15362859 1.6980001
0.71327049 0.15760191 1.7060001
0.71327049 0.16085143 1.7060001
