# .PCD v0.7 - Point Cloud Data file format
VERSION 0.7
FIELDS x y z
SIZE 4 4 4
TYPE F F F
COUNT 1 1 1
WIDTH 104
HEIGHT 1
VIEWPOINT 0 0 0 1 0 0 0
POINTS 104
DATA ascii
-0.11805619 0.086040951 2.1010001
-0.13406381 0.090042859 2.1010001
-0.13006191 0.090042859 2.1010001
-0.12528001 0.089485712 2.0880001
-0.1220581 0.090042859 2.1010001
-0.11805619 0.090042859 2.1010001
-0.11334857 0.089485712 2.0880001
-0.10539429 0.089485712 2.0880001
-0.10204857 0.090042859 2.1010001
-0.13406381 0.09404476 2.1010001
-0.13006191 0.09404476 2.1010001
-0.12528001 0.093462855 2.0880001
-0.12130286 0.093462855 2.0880001
-0.11732572 0.093462855 2.0880001
-0.10539429 0.093462855 2.0880001
-0.12528001 0.097440004 2.0880001
-0.12130286 0.097440004 2.0880001
-0.11732572 0.097440004 2.0880001
-0.11334857 0.097440004 2.0880001
-0.14697334 0.094626665 2.1140001
-0.14206763 0.09404476 2.1010001
-0.13806573 0.09404476 2.1010001
-0.15007144 0.098046668 2.1010001
-0.14606953 0.098046668 2.1010001
-0.14206763 0.098046668 2.1010001
-0.13806573 0.098046668 2.1010001
-0.13323429 0.097440004 2.0880001
-0.12925714 0.097440004 2.0880001
-0.14606953 0.10204857 2.1010001
-0.14206763 0.10204857 2.1010001
-0.13806573 0.10204857 2.1010001
-0.13323429 0.10141715 2.0880001
-0.12925714 0.10141715 2.0880001
-0.12528001 0.10141715 2.0880001
-0.12130286 0.10141715 2.0880001
-0.11269715 0.09292572 2.0760002
-0.11732572 0.10141715 2.0880001
-0.11334857 0.10141715 2.0880001
-0.10937143 0.10141715 2.0880001
-0.10539429 0.097440004 2.0880001
-0.10874286 0.09292572 2.0760002
-0.10141715 0.093462855 2.0880001
-0.097440004 0.093462855 2.0880001
-0.10874286 0.096880011 2.0760002
-0.10141715 0.097440004 2.0880001
-0.097440004 0.097440004 2.0880001
-0.10539429 0.10141715 2.0880001
-0.10141715 0.10141715 2.0880001
-0.097440004 0.10141715 2.0880001
-0.098046668 0.090042859 2.1010001
-0.09404476 0.090042859 2.1010001
-0.09404476 0.09404476 2.1010001
-0.093462855 0.097440004 2.0880001
-0.089485712 0.097440004 2.0880001
-0.093462855 0.10141715 2.0880001
-0.089485712 0.10141715 2.0880001
-0.090042859 0.090042859 2.1010001
-0.086040951 0.090042859 2.1010001
-0.090042859 0.09404476 2.1010001
-0.086040951 0.09404476 2.1010001
-0.15407334 0.098046668 2.1010001
-0.15502666 0.10268001 2.1140001
-0.15100001 0.10268001 2.1140001
-0.085508578 0.097440004 2.0880001
-0.085508578 0.10141715 2.0880001
-0.081531428 0.10141715 2.0880001
-0.077554286 0.097440004 2.0880001
-0.077554286 0.10141715 2.0880001
-0.082039051 0.090042859 2.1010001
-0.082039051 0.09404476 2.1010001
-0.082039051 0.098046668 2.1010001
-0.078037143 0.090042859 2.1010001
-0.078037143 0.09404476 2.1010001
-0.073577143 0.097440004 2.0880001
-0.069600001 0.097440004 2.0880001
-0.073577143 0.10141715 2.0880001
-0.069600001 0.10141715 2.0880001
-0.074035235 0.090042859 2.1010001
-0.073577143 0.093462855 2.0880001
-0.070033334 0.09404476 2.1010001
-0.16003144 0.10331143 2.1270001
-0.065622859 0.097440004 2.0880001
-0.065622859 0.10141715 2.0880001
-0.061645716 0.10141715 2.0880001
-0.061645716 0.097440004 2.0880001
-0.057668574 0.097440004 2.0880001
-0.057668574 0.10141715 2.0880001
-0.065622859 0.093462855 2.0880001
-0.053691432 0.097440004 2.0880001
-0.049714286 0.097440004 2.0880001
-0.053691432 0.10141715 2.0880001
-0.049714286 0.10141715 2.0880001
-0.061645716 0.093462855 2.0880001
-0.057668574 0.093462855 2.0880001
-0.053691432 0.093462855 2.0880001
-0.053382862 0.10478859 2.0760002
-0.045737144 0.10141715 2.0880001
-0.041759998 0.10141715 2.0880001
-0.037782859 0.10141715 2.0880001
-0.033805717 0.10141715 2.0880001
-0.037565719 0.10478859 2.0760002
-0.029828573 0.10141715 2.0880001
-0.033611432 0.10478859 2.0760002
-0.025851429 0.10141715 2.0880001
