# .PCD v0.7 - Point Cloud Data file format
VERSION 0.7
FIELDS x y z
SIZE 4 4 4
TYPE F F F
COUNT 1 1 1
WIDTH 442
HEIGHT 1
VIEWPOINT 0 0 0 1 0 0 0
POINTS 442
DATA ascii
0.11491334 0.13580666 1.567
0.11789809 0.13580666 1.567
0.10943048 0.13941143 1.5740001
0.11192857 0.13879143 1.567
0.11491334 0.13879143 1.567
0.11789809 0.13879143 1.567
0.10943048 0.14240953 1.5740001
0.11242858 0.14240953 1.5740001
0.11491334 0.14177619 1.567
0.11789809 0.14177619 1.567
0.10943048 0.14540763 1.5740001
0.11242858 0.14540763 1.5740001
0.11542667 0.14540763 1.5740001
0.11842477 0.14540763 1.5740001
0.12088286 0.14476095 1.567
0.12386762 0.14476095 1.567
0.12685239 0.14476095 1.567
0.11242858 0.14840573 1.5740001
0.11542667 0.14840573 1.5740001
0.11842477 0.14840573 1.5740001
0.12142286 0.14840573 1.5740001
0.12442096 0.14840573 1.5740001
0.12741905 0.14840573 1.5740001
0.12258001 0.14074001 1.5890001
0.12560667 0.14074001 1.5890001
0.12312 0.14440002 1.5960001
0.12616 0.14440002 1.5960001
0.11704 0.15352002 1.5960001
0.12008001 0.15352002 1.5960001
0.12312 0.15352002 1.5960001
0.12616 0.15352002 1.5960001
0.12008001 0.15656 1.5960001
0.12976667 0.15419333 1.603
0.11144667 0.15114 1.603
0.11144667 0.15419333 1.603
0.1145 0.15419333 1.603
0.11755333 0.15724668 1.603
0.12366 0.15724668 1.603
0.12671334 0.15724668 1.603
0.12976667 0.15724668 1.603
0.13282 0.15724668 1.603
0.1145 0.1603 1.603
0.11755333 0.1603 1.603
0.12060667 0.1603 1.603
0.12366 0.1603 1.603
0.11507143 0.15803143 1.6110001
0.12734573 0.1611 1.6110001
0.1145 0.16335334 1.603
0.11755333 0.16335334 1.603
0.12060667 0.16335334 1.603
0.12366 0.16335334 1.603
0.1145 0.16640668 1.603
0.11755333 0.16640668 1.603
0.12060667 0.16640668 1.603
0.13041428 0.1611 1.6110001
0.12734573 0.16416858 1.6110001
0.12427714 0.16723713 1.6110001
0.12734573 0.16723713 1.6110001
0.1145 0.17251334 1.603
0.11755333 0.17251334 1.603
0.13406286 0.15563619 1.618
0.13406286 0.1618 1.618
0.13098095 0.16488191 1.618
0.12120858 0.17030573 1.6110001
0.12427714 0.17030573 1.6110001
0.12734573 0.17030573 1.6110001
0.11248952 0.15871809 1.618
0.11248952 0.1618 1.618
0.11200286 0.16723713 1.6110001
0.11248952 0.16488191 1.618
0.11507143 0.17030573 1.6110001
0.11814 0.17030573 1.6110001
0.11200286 0.17337428 1.6110001
0.12120858 0.17337428 1.6110001
0.12427714 0.17337428 1.6110001
0.13098095 0.1679638 1.618
0.12734573 0.17337428 1.6110001
0.13041428 0.17337428 1.6110001
0.10940763 0.17104572 1.618
0.11248952 0.17104572 1.618
0.11507143 0.17644288 1.6110001
0.11814 0.17644288 1.6110001
0.12427714 0.17644288 1.6110001
0.12734573 0.17644288 1.6110001
0.13098095 0.17104572 1.618
0.10994858 0.15950286 1.626
0.10685143 0.16260001 1.626
0.10994858 0.16260001 1.626
0.10685143 0.16569716 1.626
0.10994858 0.16569716 1.626
0.10994858 0.16879429 1.626
0.10940763 0.17412762 1.618
0.13472572 0.16569716 1.626
0.13782287 0.16569716 1.626
0.13472572 0.16879429 1.626
0.13782287 0.16879429 1.626
0.13472572 0.17189144 1.626
0.13406286 0.17412762 1.618
0.12173524 0.17720953 1.618
0.13098095 0.17720953 1.618
0.12427714 0.17951143 1.6110001
0.12734573 0.17951143 1.6110001
0.13041428 0.17951143 1.6110001
0.11248952 0.17720953 1.618
0.12734573 0.18258001 1.6110001
0.13782287 0.17189144 1.626
0.11865333 0.18029143 1.618
0.12173524 0.18029143 1.618
0.13041428 0.18258001 1.6110001
0.12481714 0.18337333 1.618
0.13782287 0.17498858 1.626
0.13472572 0.17808571 1.626
0.13850096 0.15717524 1.6340001
0.14161333 0.15717524 1.6340001
0.13850096 0.16028762 1.6340001
0.14161333 0.16028762 1.6340001
0.13850096 0.16340001 1.6340001
0.14161333 0.16340001 1.6340001
0.14472573 0.16340001 1.6340001
0.14161333 0.16651239 1.6340001
0.14472573 0.16651239 1.6340001
0.14161333 0.16962476 1.6340001
0.13782287 0.17808571 1.626
0.13472572 0.18118286 1.626
0.13782287 0.18118286 1.626
0.11614286 0.18118286 1.626
0.12481714 0.18645523 1.618
0.12789905 0.18645523 1.618
0.13098095 0.18645523 1.618
0.10426477 0.16028762 1.6340001
0.10737714 0.16028762 1.6340001
0.10426477 0.16340001 1.6340001
0.10426477 0.16651239 1.6340001
0.10685143 0.17189144 1.626
0.10426477 0.16962476 1.6340001
0.10737714 0.16962476 1.6340001
0.10994858 0.17808571 1.626
0.10426477 0.17273715 1.6340001
0.10994858 0.18118286 1.626
0.11304571 0.18118286 1.626
0.11924 0.18428001 1.626
0.12233715 0.18428001 1.626
0.12481714 0.18953715 1.618
0.12789905 0.18953715 1.618
0.13098095 0.18953715 1.618
0.14161333 0.17273715 1.6340001
0.13472572 0.18428001 1.626
0.13782287 0.18428001 1.626
0.10426477 0.17584954 1.6340001
0.10737714 0.17584954 1.6340001
0.10115238 0.1789619 1.6340001
0.10426477 0.1789619 1.6340001
0.10737714 0.1789619 1.6340001
0.10737714 0.18207429 1.6340001
0.10065714 0.18428001 1.626
0.11924 0.18737714 1.626
0.12233715 0.18737714 1.626
0.13472572 0.18737714 1.626
0.14161333 0.17584954 1.6340001
0.10158572 0.17347714 1.641
0.10158572 0.17660286 1.641
0.094927624 0.1789619 1.6340001
0.09804 0.1789619 1.6340001
0.10115238 0.18207429 1.6340001
0.10426477 0.18207429 1.6340001
0.09804 0.18207429 1.6340001
0.10426477 0.18518668 1.6340001
0.10737714 0.18518668 1.6340001
0.11048953 0.18518668 1.6340001
0.11360191 0.18518668 1.6340001
0.11671428 0.18518668 1.6340001
0.1478381 0.16651239 1.6340001
0.14534572 0.17035143 1.641
0.14534572 0.17347714 1.641
0.14472573 0.17584954 1.6340001
0.14161333 0.1789619 1.6340001
0.14161333 0.18207429 1.6340001
0.14847143 0.17035143 1.641
0.14161333 0.18518668 1.6340001
0.14534572 0.17972857 1.641
0.13850096 0.18829904 1.6340001
0.14161333 0.18829904 1.6340001
0.13472572 0.19047429 1.626
0.11924 0.19047429 1.626
0.12233715 0.19047429 1.626
0.11360191 0.18829904 1.6340001
0.11671428 0.18829904 1.6340001
0.13850096 0.19141144 1.6340001
0.14919524 0.17432286 1.649
0.14919524 0.17746381 1.649
0.10115238 0.18829904 1.6340001
0.10783715 0.18910572 1.641
0.11096286 0.18910572 1.641
0.10115238 0.19141144 1.6340001
0.11096286 0.19223143 1.641
0.10208096 0.16804096 1.649
0.10208096 0.17118192 1.649
0.09894 0.17432286 1.649
0.095799051 0.17432286 1.649
0.09894 0.17746381 1.649
0.088702857 0.1789619 1.6340001
0.092208572 0.17972857 1.641
0.091815241 0.18207429 1.6340001
0.094927624 0.18207429 1.6340001
0.09804 0.18518668 1.6340001
0.094927624 0.18518668 1.6340001
0.092658095 0.17432286 1.649
0.095799051 0.17746381 1.649
0.088702857 0.18207429 1.6340001
0.091815241 0.18518668 1.6340001
0.09804 0.18829904 1.6340001
0.094927624 0.18829904 1.6340001
0.10471143 0.18910572 1.641
0.09804 0.19141144 1.6340001
0.092658095 0.17746381 1.649
0.088702857 0.18518668 1.6340001
0.091815241 0.18829904 1.6340001
0.094927624 0.19141144 1.6340001
0.10471143 0.19223143 1.641
0.10783715 0.19223143 1.641
0.09804 0.19452383 1.6340001
0.10115238 0.19452383 1.6340001
0.14919524 0.18060477 1.649
0.1460543 0.18374571 1.649
0.088702857 0.18829904 1.6340001
0.091815241 0.19141144 1.6340001
0.085171431 0.18118286 1.626
0.082074285 0.18428001 1.626
0.082074285 0.18737714 1.626
0.084752388 0.18645523 1.618
0.1460543 0.18688667 1.649
0.089517146 0.17432286 1.649
0.089517146 0.17746381 1.649
0.078977145 0.18118286 1.626
0.082074285 0.18118286 1.626
0.076253332 0.18518668 1.6340001
0.084752388 0.18337333 1.618
0.15307523 0.17201239 1.6570001
0.1460543 0.19002762 1.649
0.14919524 0.19002762 1.649
0.14991905 0.18463714 1.6570001
0.14991905 0.18779334 1.6570001
0.15381429 0.17601429 1.6650001
0.15381429 0.17918572 1.6650001
0.15698572 0.17918572 1.6650001
0.16015714 0.17918572 1.6650001
0.15381429 0.18235715 1.6650001
0.15698572 0.18235715 1.6650001
0.15381429 0.18552858 1.6650001
0.15698572 0.18552858 1.6650001
0.14360666 0.19410571 1.6570001
0.14676286 0.19410571 1.6570001
0.14991905 0.19410571 1.6570001
0.093107618 0.1688562 1.6570001
0.096263811 0.1688562 1.6570001
0.099420004 0.1688562 1.6570001
0.089951433 0.17201239 1.6570001
0.093107618 0.17201239 1.6570001
0.096263811 0.17201239 1.6570001
0.099420004 0.17201239 1.6570001
0.070028573 0.1789619 1.6340001
0.073140956 0.1789619 1.6340001
0.070028573 0.18207429 1.6340001
0.073140956 0.18207429 1.6340001
0.075880006 0.18118286 1.626
0.070028573 0.18518668 1.6340001
0.073140956 0.18518668 1.6340001
0.078588575 0.18337333 1.618
0.073140956 0.18829904 1.6340001
0.076253332 0.18829904 1.6340001
0.070028573 0.18829904 1.6340001
0.078588575 0.18645523 1.618
0.15381429 0.18870001 1.6650001
0.15698572 0.18870001 1.6650001
0.14360666 0.19726191 1.6570001
0.14676286 0.19726191 1.6570001
0.15381429 0.19187143 1.6650001
0.14676286 0.2004181 1.6570001
0.06691619 0.18207429 1.6340001
0.063803814 0.18518668 1.6340001
0.06691619 0.18518668 1.6340001
0.06691619 0.18829904 1.6340001
0.063803814 0.18829904 1.6340001
0.15381429 0.19504286 1.6650001
0.060691431 0.18207429 1.6340001
0.063803814 0.18207429 1.6340001
0.057579052 0.18518668 1.6340001
0.060691431 0.18518668 1.6340001
0.057579052 0.18829904 1.6340001
0.060691431 0.18829904 1.6340001
0.15698572 0.17284288 1.6650001
0.16015714 0.17284288 1.6650001
0.15774001 0.17686002 1.6730001
0.15698572 0.19187143 1.6650001
0.15064286 0.19821429 1.6650001
0.16015714 0.19187143 1.6650001
0.15698572 0.19504286 1.6650001
0.15064286 0.20138572 1.6650001
0.16092667 0.18642001 1.6730001
0.16015714 0.19504286 1.6650001
0.16332857 0.19504286 1.6650001
0.16092667 0.18960667 1.6730001
0.16650002 0.19504286 1.6650001
0.16332857 0.19821429 1.6650001
0.16092667 0.18323334 1.6730001
0.16411334 0.18960667 1.6730001
0.1673 0.18960667 1.6730001
0.16411334 0.19279334 1.6730001
0.1648981 0.18731144 1.6810001
0.17048667 0.18960667 1.6730001
0.1673 0.19279334 1.6730001
0.1681 0.18731144 1.6810001
0.17367335 0.18960667 1.6730001
0.17048667 0.19279334 1.6730001
0.16967145 0.19504286 1.6650001
0.15455334 0.19916669 1.6730001
0.15774001 0.19916669 1.6730001
0.16092667 0.19916669 1.6730001
0.16650002 0.19821429 1.6650001
0.15455334 0.20235334 1.6730001
0.15774001 0.20235334 1.6730001
0.16092667 0.20235334 1.6730001
0.17367335 0.19279334 1.6730001
0.16967145 0.19821429 1.6650001
0.051354285 0.1789619 1.6340001
0.054466669 0.1789619 1.6340001
0.057579052 0.1789619 1.6340001
0.060691431 0.1789619 1.6340001
0.063803814 0.1789619 1.6340001
0.06691619 0.1789619 1.6340001
0.051354285 0.18207429 1.6340001
0.054466669 0.18207429 1.6340001
0.057579052 0.18207429 1.6340001
0.051354285 0.18518668 1.6340001
0.054466669 0.18518668 1.6340001
0.051354285 0.18829904 1.6340001
0.048241906 0.18207429 1.6340001
0.048241906 0.18518668 1.6340001
0.048241906 0.18829904 1.6340001
0.045129526 0.18518668 1.6340001
0.045322858 0.18910572 1.641
0.042197142 0.18285429 1.641
0.045129526 0.18207429 1.6340001
0.045322858 0.19223143 1.641
0.03907143 0.18598001 1.641
0.042197142 0.18598001 1.641
0.042197142 0.18910572 1.641
0.042197142 0.19223143 1.641
0.03907143 0.18910572 1.641
0.16256191 0.17865716 1.6900001
0.17130192 0.18731144 1.6810001
0.16578096 0.18509524 1.6900001
0.16900001 0.18509524 1.6900001
0.035945714 0.17972857 1.641
0.03907143 0.17972857 1.641
0.042197142 0.17972857 1.641
0.045322858 0.17972857 1.641
0.048241906 0.1789619 1.6340001
0.035945714 0.18285429 1.641
0.03907143 0.18285429 1.641
0.035945714 0.18598001 1.641
0.035945714 0.18910572 1.641
0.03907143 0.19223143 1.641
0.035945714 0.19223143 1.641
0.03907143 0.19535714 1.641
0.035945714 0.19535714 1.641
0.03907143 0.19848286 1.641
0.035945714 0.19848286 1.641
0.032980002 0.18688667 1.649
0.032980002 0.19002762 1.649
0.029839048 0.19002762 1.649
0.029839048 0.19316858 1.649
0.032980002 0.19316858 1.649
0.029839048 0.19630952 1.649
0.032980002 0.19630952 1.649
0.032980002 0.19945048 1.649
0.032980002 0.18374571 1.649
0.029983811 0.18779334 1.6570001
0.026698096 0.19316858 1.649
0.16735047 0.18034858 1.7060001
0.16735047 0.1835981 1.7060001
0.029983811 0.18148096 1.6570001
0.032980002 0.18060477 1.649
0.029983811 0.18463714 1.6570001
0.026827618 0.18779334 1.6570001
0.026827618 0.19094953 1.6570001
0.026827618 0.19726191 1.6570001
0.029983811 0.2004181 1.6570001
0.026827618 0.2004181 1.6570001
0.029983811 0.20357428 1.6570001
0.026827618 0.20357428 1.6570001
0.02367143 0.18779334 1.6570001
0.017359048 0.19094953 1.6570001
0.020515239 0.19094953 1.6570001
0.02367143 0.19094953 1.6570001
0.017275238 0.19316858 1.649
0.020515239 0.19410571 1.6570001
0.02367143 0.19410571 1.6570001
0.020515239 0.19726191 1.6570001
0.02367143 0.19726191 1.6570001
0.02367143 0.2004181 1.6570001
0.017359048 0.19726191 1.6570001
0.020515239 0.2004181 1.6570001
0.02367143 0.20357428 1.6570001
0.014202857 0.19094953 1.6570001
0.014202857 0.19410571 1.6570001
0.014202857 0.19726191 1.6570001
0.017359048 0.2004181 1.6570001
0.020515239 0.20357428 1.6570001
0.014202857 0.2004181 1.6570001
0.017359048 0.20357428 1.6570001
0.014202857 0.20357428 1.6570001
0.011046668 0.19094953 1.6570001
0.011046668 0.19410571 1.6570001
0.011046668 0.19726191 1.6570001
0.1715 0.1813 1.715
0.17476667 0.1813 1.715
0.1715 0.18456666 1.715
0.17476667 0.18456666 1.715
0.17476667 0.18783334 1.715
0.0078904759 0.19094953 1.6570001
0.0078904759 0.19410571 1.6570001
0.0078904759 0.19726191 1.6570001
0.011100001 0.20138572 1.6650001
0.011100001 0.20455715 1.6650001
0.0047342856 0.19410571 1.6570001
0.0015857144 0.19187143 1.6650001
0.0047571431 0.19187143 1.6650001
-0.0015780953 0.19410571 1.6570001
0.0015780953 0.19410571 1.6570001
0.0015704762 0.19630952 1.649
0.0015704762 0.19945048 1.649
0.0079285717 0.20138572 1.6650001
0.0079285717 0.20455715 1.6650001
-0.0015704762 0.19630952 1.649
0.0046885717 0.19535714 1.641
0.0046885717 0.19848286 1.641
0.0015704762 0.20259143 1.649
0.0046885717 0.20160858 1.641
-0.0015857144 0.19187143 1.6650001
-0.0015628572 0.19848286 1.641
-0.0015628572 0.20160858 1.641
