# .PCD v0.7 - Point Cloud Data file format
VERSION 0.7
FIELDS x y z
SIZE 4 4 4
TYPE F F F
COUNT 1 1 1
WIDTH 1504
HEIGHT 1
VIEWPOINT 0 0 0 1 0 0 0
POINTS 1504
DATA ascii
0.30456001 -0.07394667 1.3160001
0.30706668 -0.07394667 1.3160001
0.30957335 -0.07394667 1.3160001
0.31208003 -0.07394667 1.3160001
0.3145867 -0.07394667 1.3160001
0.30320096 -0.071711436 1.3210001
0.30571717 -0.071711436 1.3210001
0.30320096 -0.069195241 1.3210001
0.30571717 -0.069195241 1.3210001
0.30940002 -0.066931434 1.3260001
0.31074953 -0.066679053 1.3210001
0.31326574 -0.066679053 1.3210001
0.31074953 -0.064162858 1.3210001
0.31326574 -0.064162858 1.3210001
0.31074953 -0.06164667 1.3210001
0.31326574 -0.06164667 1.3210001
0.30940002 -0.064405717 1.3260001
0.30940002 -0.061880007 1.3260001
0.32210669 -0.031333335 1.3160001
0.31960002 -0.033840001 1.3160001
0.32210669 -0.028826667 1.3160001
0.45024574 0.068074286 1.2540001
0.45082954 0.067802854 1.2490001
0.45175713 0.069957145 1.245
0.45230478 0.069676191 1.24
0.45408005 0.071573339 1.2320001
0.45924863 0.073620006 1.2270001
0.45024574 0.07046286 1.2540001
0.45082954 0.070181906 1.2490001
0.45230478 0.072038092 1.24
0.45320001 0.074160002 1.2360001
0.45173335 0.071573339 1.2320001
0.45457432 0.071282864 1.2270001
0.45408005 0.073920004 1.2320001
0.45457432 0.073620006 1.2270001
0.45691147 0.073620006 1.2270001
0.45320001 0.076514289 1.2360001
0.44561142 0.07124953 1.268
0.44308004 0.07046286 1.2540001
0.44369239 0.070181906 1.2490001
0.44607145 0.070181906 1.2490001
0.44607145 0.072560951 1.2490001
0.44701427 0.072328568 1.245
0.44938573 0.072328568 1.245
0.44994286 0.072038092 1.24
0.45084575 0.074160002 1.2360001
0.39773431 0.013629524 1.3010001
0.40021244 0.013629524 1.3010001
0.40423813 0.013681905 1.3060001
0.40672576 0.013681905 1.3060001
0.40764672 0.013629524 1.3010001
0.41012481 0.013629524 1.3010001
0.41260287 0.013629524 1.3010001
0.39773431 0.016107621 1.3010001
0.40021244 0.016107621 1.3010001
0.40423813 0.016169524 1.3060001
0.40672576 0.016169524 1.3060001
0.40764672 0.016107621 1.3010001
0.41012481 0.016107621 1.3010001
0.40021244 0.018585715 1.3010001
0.40423813 0.018657144 1.3060001
0.40672576 0.018657144 1.3060001
0.40021244 0.021063812 1.3010001
0.40672576 0.021144763 1.3060001
0.39773431 0.018585715 1.3010001
0.4017505 0.023632383 1.3060001
0.40423813 0.023632383 1.3060001
0.40423813 0.026120001 1.3060001
0.40516859 0.028498096 1.3010001
0.40516859 0.030976191 1.3010001
0.40764672 0.030976191 1.3010001
0.4026905 0.030976191 1.3010001
0.40764672 0.033454288 1.3010001
0.41012481 0.033454288 1.3010001
0.39926291 0.021144763 1.3060001
0.39926291 0.023632383 1.3060001
0.4017505 0.026120001 1.3060001
0.4017505 0.02860762 1.3060001
0.40423813 0.02860762 1.3060001
0.40021244 0.030976191 1.3010001
0.40021244 0.033454288 1.3010001
0.4026905 0.033454288 1.3010001
0.40516859 0.033454288 1.3010001
0.40516859 0.035932384 1.3010001
0.40764672 0.035932384 1.3010001
0.41012481 0.035932384 1.3010001
0.39926291 0.026120001 1.3060001
0.40021244 0.035932384 1.3010001
0.4026905 0.035932384 1.3010001
0.40516859 0.038410481 1.3010001
0.40764672 0.038410481 1.3010001
0.41012481 0.038410481 1.3010001
0.41260287 0.038410481 1.3010001
0.41012481 0.040888574 1.3010001
0.41260287 0.040888574 1.3010001
0.41508099 0.040888574 1.3010001
0.41755909 0.040888574 1.3010001
0.42003718 0.040888574 1.3010001
0.40764672 0.040888574 1.3010001
0.41260287 0.043366671 1.3010001
0.41508099 0.043366671 1.3010001
0.41755909 0.043366671 1.3010001
0.42003718 0.043366671 1.3010001
0.42172664 0.052869525 1.291
0.39926291 0.02860762 1.3060001
0.40021244 0.038410481 1.3010001
0.4026905 0.038410481 1.3010001
0.40516859 0.040888574 1.3010001
0.41012481 0.045844767 1.3010001
0.41508099 0.045844767 1.3010001
0.41755909 0.045844767 1.3010001
0.42003718 0.045844767 1.3010001
0.42251527 0.045844767 1.3010001
0.42089143 0.050605714 1.296
0.43156284 0.050410476 1.291
0.43267718 0.050254285 1.2870001
0.43022573 0.052705716 1.2870001
0.43267718 0.052705716 1.2870001
0.43512857 0.052705716 1.2870001
0.43267718 0.055157144 1.2870001
0.43512857 0.055157144 1.2870001
0.42777431 0.057608575 1.2870001
0.43022573 0.057608575 1.2870001
0.43267718 0.057608575 1.2870001
0.43267718 0.060060002 1.2870001
0.43343809 0.062268574 1.2820001
0.43248004 0.06905143 1.2720001
0.43353525 0.07124953 1.268
0.43595049 0.07124953 1.268
0.4383657 0.07124953 1.268
0.44078097 0.07124953 1.268
0.44319618 0.07124953 1.268
0.44385427 0.073374286 1.263
0.43343809 0.064710483 1.2820001
0.43418002 0.066890478 1.2770001
0.43005717 0.06905143 1.2720001
0.44701427 0.074699998 1.245
0.44607145 0.074940003 1.2490001
0.44758093 0.0744 1.24
0.44849142 0.074160002 1.2360001
0.45084575 0.076514289 1.2360001
0.44849142 0.076514289 1.2360001
0.45084575 0.078868575 1.2360001
0.44521904 0.076761901 1.24
0.44758093 0.076761901 1.24
0.44758093 0.07912381 1.24
0.44849142 0.078868575 1.2360001
0.30823335 -0.051581908 1.3210001
0.30571717 -0.051581908 1.3210001
0.30456001 -0.048880003 1.3160001
0.30456001 -0.046373338 1.3160001
0.30706668 -0.046373338 1.3160001
0.30706668 -0.043866672 1.3160001
0.30957335 -0.041360006 1.3160001
0.31208003 -0.038853336 1.3160001
0.3145867 -0.036346667 1.3160001
0.31709334 -0.033840001 1.3160001
0.31960002 -0.031333335 1.3160001
0.30957335 -0.038853336 1.3160001
0.31208003 -0.036346667 1.3160001
0.31960002 -0.028826667 1.3160001
0.32210669 -0.026320001 1.3160001
0.30571717 -0.044033337 1.3210001
0.30706668 -0.041360006 1.3160001
0.30706668 -0.038853336 1.3160001
0.30957335 -0.036346667 1.3160001
0.30320096 -0.044033337 1.3210001
0.30571717 -0.041517146 1.3210001
0.31208003 -0.033840001 1.3160001
0.30320096 -0.041517146 1.3210001
0.30571717 -0.039000954 1.3210001
0.30957335 -0.033840001 1.3160001
0.31578192 -0.033968575 1.3210001
0.31578192 -0.031452384 1.3210001
0.3182981 -0.031452384 1.3210001
0.3182981 -0.028936192 1.3210001
0.31960002 -0.026320001 1.3160001
0.30182287 -0.069457151 1.3260001
0.30320096 -0.039000954 1.3210001
0.30823335 -0.036484763 1.3210001
0.30571717 -0.036484763 1.3210001
0.31326574 -0.031452384 1.3210001
0.31578192 -0.028936192 1.3210001
0.30823335 -0.033968575 1.3210001
0.31074953 -0.031452384 1.3210001
0.31326574 -0.028936192 1.3210001
0.3182981 -0.026420001 1.3210001
0.31960002 -0.023813335 1.3160001
0.32210669 -0.023813335 1.3160001
0.30320096 -0.036484763 1.3210001
0.30571717 -0.033968575 1.3210001
0.30823335 -0.031452384 1.3210001
0.31074953 -0.028936192 1.3210001
0.32712001 -0.013786667 1.3160001
0.32962668 -0.013786667 1.3160001
0.33213335 -0.013786667 1.3160001
0.32962668 -0.01128 1.3160001
0.33213335 -0.01128 1.3160001
0.32962668 -0.0087733343 1.3160001
0.33213335 -0.0087733343 1.3160001
0.33464003 -0.006266667 1.3160001
0.33213335 -0.006266667 1.3160001
0.33213335 -0.0037600005 1.3160001
0.33464003 -0.0037600005 1.3160001
0.34717336 -0.0012533334 1.3160001
0.34968004 -0.0012533334 1.3160001
0.34717336 0.0012533334 1.3160001
0.32461336 -0.016293336 1.3160001
0.32712001 -0.01128 1.3160001
0.32712001 -0.0087733343 1.3160001
0.34968004 0.0012533334 1.3160001
0.30068478 -0.036484763 1.3210001
0.30320096 -0.033968575 1.3210001
0.30571717 -0.031452384 1.3210001
0.30823335 -0.028936192 1.3210001
0.31697714 -0.026520003 1.3260001
0.32081428 -0.02138762 1.3210001
0.32210669 -0.021306667 1.3160001
0.32210669 -0.018800002 1.3160001
0.32461336 -0.018800002 1.3160001
0.39525622 0.013629524 1.3010001
0.39677528 0.016169524 1.3060001
0.39677528 0.018657144 1.3060001
0.39677528 0.023632383 1.3060001
0.39829433 0.021225717 1.3110001
0.39677528 0.026120001 1.3060001
0.39926291 0.031095238 1.3060001
0.39926291 0.033582862 1.3060001
0.40021244 0.040888574 1.3010001
0.39926291 0.036070481 1.3060001
0.39829433 0.028717143 1.3110001
0.39677528 0.033582862 1.3060001
0.39773431 0.038410481 1.3010001
0.40423813 0.041045718 1.3060001
0.41260287 0.048322864 1.3010001
0.41508099 0.048322864 1.3010001
0.41755909 0.048322864 1.3010001
0.42003718 0.048322864 1.3010001
0.42251527 0.048322864 1.3010001
0.42910379 0.050410476 1.291
0.42089143 0.053074285 1.296
0.42418569 0.052869525 1.291
0.42664474 0.052869525 1.291
0.40021244 0.043366671 1.3010001
0.40423813 0.043533336 1.3060001
0.40672576 0.043533336 1.3060001
0.40921336 0.043533336 1.3060001
0.41170099 0.043533336 1.3060001
0.40672576 0.046020955 1.3060001
0.40921336 0.046020955 1.3060001
0.41418859 0.046020955 1.3060001
0.41170099 0.048508577 1.3060001
0.41508099 0.050800957 1.3010001
0.41755909 0.050800957 1.3010001
0.42003718 0.050800957 1.3010001
0.39829433 0.031214288 1.3110001
0.39677528 0.036070481 1.3060001
0.39773431 0.040888574 1.3010001
0.40423813 0.046020955 1.3060001
0.40921336 0.048508577 1.3060001
0.40672576 0.048508577 1.3060001
0.41170099 0.050996196 1.3060001
0.41418859 0.050996196 1.3060001
0.41755909 0.05327905 1.3010001
0.42003718 0.05327905 1.3010001
0.42418569 0.05532857 1.291
0.42910379 0.052869525 1.291
0.42336002 0.055542856 1.296
0.42664474 0.05532857 1.291
0.42910379 0.05532857 1.291
0.43156284 0.05532857 1.291
0.42418569 0.05778762 1.291
0.42664474 0.05778762 1.291
0.42172664 0.060246665 1.291
0.42418569 0.060246665 1.291
0.42532286 0.060060002 1.2870001
0.42777431 0.060060002 1.2870001
0.43022573 0.060060002 1.2870001
0.42418569 0.062705718 1.291
0.42532286 0.062511429 1.2870001
0.42777431 0.062511429 1.2870001
0.43022573 0.062511429 1.2870001
0.43267718 0.062511429 1.2870001
0.43022573 0.064962864 1.2870001
0.43267718 0.064962864 1.2870001
0.43343809 0.067152381 1.2820001
0.43005717 0.071474291 1.2720001
0.43248004 0.071474291 1.2720001
0.43353525 0.073664762 1.268
0.4383657 0.073664762 1.268
0.44078097 0.073664762 1.268
0.44319618 0.073664762 1.268
0.43005717 0.073897146 1.2720001
0.43111998 0.073664762 1.268
0.43423143 0.073374286 1.263
0.4383657 0.076080002 1.268
0.44078097 0.076080002 1.268
0.44319618 0.076080002 1.268
0.44385427 0.075779997 1.263
0.44131336 0.072560951 1.2490001
0.44369239 0.072560951 1.2490001
0.4318257 0.075779997 1.263
0.43423143 0.075779997 1.263
0.44308004 0.075240009 1.2540001
0.44385427 0.078185715 1.263
0.43111998 0.076080002 1.268
0.4383657 0.078495234 1.268
0.44078097 0.078495234 1.268
0.44319618 0.078495234 1.268
0.4318257 0.078185715 1.263
0.43423143 0.078185715 1.263
0.43423143 0.080591433 1.263
0.44369239 0.074940003 1.2490001
0.44385427 0.080591433 1.263
0.41755909 0.055757146 1.3010001
0.42003718 0.055757146 1.3010001
0.42251527 0.055757146 1.3010001
0.41755909 0.058235243 1.3010001
0.42003718 0.058235243 1.3010001
0.42089143 0.058011428 1.296
0.42336002 0.058011428 1.296
0.42003718 0.060713336 1.3010001
0.42089143 0.060480002 1.296
0.42089143 0.06294857 1.296
0.42336002 0.06294857 1.296
0.42664474 0.065164767 1.291
0.42910379 0.065164767 1.291
0.43022573 0.067414291 1.2870001
0.43267718 0.067414291 1.2870001
0.43267718 0.069865711 1.2870001
0.4383657 0.080910474 1.268
0.44078097 0.080910474 1.268
0.44319618 0.080910474 1.268
0.44464284 0.077071428 1.245
0.30068478 -0.033968575 1.3210001
0.30320096 -0.031452384 1.3210001
0.30571717 -0.028936192 1.3210001
0.31445143 -0.026520003 1.3260001
0.30068478 -0.031452384 1.3210001
0.30320096 -0.028936192 1.3210001
0.30940002 -0.026520003 1.3260001
0.31192574 -0.026520003 1.3260001
0.3181724 -0.024084764 1.3310001
0.31950289 -0.023994287 1.3260001
0.31950289 -0.021468572 1.3260001
0.32081428 -0.01887143 1.3210001
0.32081428 -0.016355239 1.3210001
0.32333052 -0.016355239 1.3210001
0.30320096 -0.026420001 1.3210001
0.30687431 -0.026520003 1.3260001
0.31563717 -0.024084764 1.3310001
0.3181724 -0.021549525 1.3310001
0.31950289 -0.018942859 1.3260001
0.32081428 -0.013839048 1.3210001
0.32333052 -0.013839048 1.3210001
0.3258467 -0.013839048 1.3210001
0.32333052 -0.011322858 1.3210001
0.3258467 -0.011322858 1.3210001
0.3258467 -0.0088066673 1.3210001
0.3258467 -0.0062904768 1.3210001
0.32836288 -0.0062904768 1.3210001
0.33087906 -0.0062904768 1.3210001
0.33087906 -0.003774286 1.3210001
0.32333052 -0.0088066673 1.3210001
0.3258467 -0.003774286 1.3210001
0.32836288 -0.003774286 1.3210001
0.3459762 -0.0012580954 1.3210001
0.3459762 0.0012580954 1.3210001
0.32333052 -0.0062904768 1.3210001
0.39579716 0.021225717 1.3110001
0.39579716 0.023722859 1.3110001
0.39579716 0.026220001 1.3110001
0.39579716 0.028717143 1.3110001
0.39677528 0.038558099 1.3060001
0.39926291 0.043533336 1.3060001
0.39677528 0.041045718 1.3060001
0.39926291 0.046020955 1.3060001
0.4017505 0.046020955 1.3060001
0.40423813 0.048508577 1.3060001
0.44369239 0.077319048 1.2490001
0.44131336 0.077319048 1.2490001
0.44369239 0.079698101 1.2490001
0.44464284 0.079442859 1.245
0.44521904 0.07912381 1.24
0.44131336 0.079698101 1.2490001
0.31950289 -0.016417144 1.3260001
0.32081428 -0.011322858 1.3210001
0.32202861 -0.0088400003 1.3260001
0.32081428 -0.0062904768 1.3210001
0.32333052 -0.0012580954 1.3210001
0.32455429 -0.0037885716 1.3260001
0.32081428 -0.0012580954 1.3210001
0.31950289 -0.006314286 1.3260001
0.32202861 -0.0037885716 1.3260001
0.3182981 -0.0012580954 1.3210001
0.32333052 0.0012580954 1.3210001
0.32081428 0.0012580954 1.3210001
0.42910379 0.067623809 1.291
0.43022573 0.069865711 1.2870001
0.41418859 0.053483814 1.3060001
0.41667622 0.053483814 1.3060001
0.41418859 0.055971432 1.3060001
0.41667622 0.055971432 1.3060001
0.41667622 0.058459051 1.3060001
0.41755909 0.060713336 1.3010001
0.41755909 0.063191436 1.3010001
0.42003718 0.063191436 1.3010001
0.42664474 0.067623809 1.291
0.39480004 0.018800002 1.3160001
0.39579716 0.018728573 1.3110001
0.39480004 0.021306667 1.3160001
0.39330003 0.026220001 1.3110001
0.39579716 0.031214288 1.3110001
0.38978669 0.021306667 1.3160001
0.39229333 0.021306667 1.3160001
0.38978669 0.023813335 1.3160001
0.39229333 0.023813335 1.3160001
0.39480004 0.023813335 1.3160001
0.39229333 0.026320001 1.3160001
0.39229333 0.028826667 1.3160001
0.39330003 0.028717143 1.3110001
0.39480004 0.031333335 1.3160001
0.39579716 0.03371143 1.3110001
0.39579716 0.036208577 1.3110001
0.39480004 0.033840001 1.3160001
0.39579716 0.038705718 1.3110001
0.39677528 0.043533336 1.3060001
0.39926291 0.048508577 1.3060001
0.4017505 0.048508577 1.3060001
0.40423813 0.050996196 1.3060001
0.40672576 0.050996196 1.3060001
0.4017505 0.050996196 1.3060001
0.41078001 0.051191431 1.3110001
0.41170099 0.053483814 1.3060001
0.41170099 0.058459051 1.3060001
0.41418859 0.058459051 1.3060001
0.41418859 0.060946673 1.3060001
0.41667622 0.060946673 1.3060001
0.41508099 0.063191436 1.3010001
0.41508099 0.065669529 1.3010001
0.41755909 0.065669529 1.3010001
0.42003718 0.065669529 1.3010001
0.42251527 0.065669529 1.3010001
0.42499337 0.065669529 1.3010001
0.31310192 -0.024084764 1.3310001
0.2981686 -0.074227624 1.3210001
0.2981686 -0.071711436 1.3210001
0.30182287 -0.071982868 1.3260001
0.29062003 -0.074227624 1.3210001
0.29313621 -0.074227624 1.3210001
0.31563717 -0.021549525 1.3310001
0.3181724 -0.019014288 1.3310001
0.31056669 -0.024084764 1.3310001
0.31310192 -0.021549525 1.3310001
0.31563717 -0.019014288 1.3310001
0.3181724 -0.016479049 1.3310001
0.38477334 0.013786667 1.3160001
0.38728005 0.013786667 1.3160001
0.38830575 0.013734287 1.3110001
0.39080289 0.013734287 1.3110001
0.39330003 0.013734287 1.3110001
0.39428765 0.013681905 1.3060001
0.38728005 0.016293336 1.3160001
0.38978669 0.016293336 1.3160001
0.39229333 0.016293336 1.3160001
0.39330003 0.016231429 1.3110001
0.39579716 0.016231429 1.3110001
0.38728005 0.018800002 1.3160001
0.38978669 0.018800002 1.3160001
0.39229333 0.018800002 1.3160001
0.38728005 0.021306667 1.3160001
0.38477334 0.016293336 1.3160001
0.38728005 0.023813335 1.3160001
0.38978669 0.026320001 1.3160001
0.38978669 0.028826667 1.3160001
0.39229333 0.031333335 1.3160001
0.38477334 0.018800002 1.3160001
0.38728005 0.026320001 1.3160001
0.38477334 0.023813335 1.3160001
0.38477334 0.026320001 1.3160001
0.38978669 0.031333335 1.3160001
0.38978669 0.033840001 1.3160001
0.39229333 0.033840001 1.3160001
0.39229333 0.036346667 1.3160001
0.39480004 0.036346667 1.3160001
0.39480004 0.038853336 1.3160001
0.39579716 0.041202862 1.3110001
0.39330003 0.041202862 1.3110001
0.39579716 0.043700002 1.3110001
0.39829433 0.046197146 1.3110001
0.39229333 0.038853336 1.3160001
0.39579716 0.046197146 1.3110001
0.3822667 0.021306667 1.3160001
0.38477334 0.021306667 1.3160001
0.3822667 0.023813335 1.3160001
0.38875145 0.028936192 1.3210001
0.3822667 0.026320001 1.3160001
0.38875145 0.031452384 1.3210001
0.38978669 0.036346667 1.3160001
0.38728005 0.036346667 1.3160001
0.38978669 0.038853336 1.3160001
0.39229333 0.041360006 1.3160001
0.39480004 0.043866672 1.3160001
0.38978669 0.041360006 1.3160001
0.39229333 0.043866672 1.3160001
0.39579716 0.04869429 1.3110001
0.39829433 0.04869429 1.3110001
0.39926291 0.050996196 1.3060001
0.39829433 0.051191431 1.3110001
0.39926291 0.053483814 1.3060001
0.4017505 0.053483814 1.3060001
0.38875145 0.033968575 1.3210001
0.38978669 0.043866672 1.3160001
0.39229333 0.046373338 1.3160001
0.39480004 0.046373338 1.3160001
0.39579716 0.051191431 1.3110001
0.40578574 0.053688575 1.3110001
0.40828288 0.053688575 1.3110001
0.41078001 0.053688575 1.3110001
0.4032886 0.056185719 1.3110001
0.40828288 0.056185719 1.3110001
0.41078001 0.056185719 1.3110001
0.41327718 0.056185719 1.3110001
0.40079144 0.056185719 1.3110001
0.40828288 0.058682859 1.3110001
0.41078001 0.058682859 1.3110001
0.41418859 0.063434288 1.3060001
0.41508099 0.068147629 1.3010001
0.41755909 0.068147629 1.3010001
0.42003718 0.068147629 1.3010001
0.42251527 0.068147629 1.3010001
0.42499337 0.068147629 1.3010001
0.38623527 0.028936192 1.3210001
0.38728005 0.038853336 1.3160001
0.38978669 0.046373338 1.3160001
0.39229333 0.048880003 1.3160001
0.39480004 0.048880003 1.3160001
0.39330003 0.053688575 1.3110001
0.39579716 0.053688575 1.3110001
0.39829433 0.056185719 1.3110001
0.39981338 0.053893339 1.3160001
0.40733337 0.056400005 1.3160001
0.40079144 0.058682859 1.3110001
0.4032886 0.058682859 1.3110001
0.4032886 0.061180007 1.3110001
0.40828288 0.061180007 1.3110001
0.41078001 0.061180007 1.3110001
0.41327718 0.061180007 1.3110001
0.41170099 0.063434288 1.3060001
0.41418859 0.065921903 1.3060001
0.42251527 0.070625715 1.3010001
0.42499337 0.070625715 1.3010001
0.30803144 -0.024084764 1.3310001
0.31310192 -0.019014288 1.3310001
0.31563717 -0.016479049 1.3310001
0.3181724 -0.01394381 1.3310001
0.32070762 -0.01394381 1.3310001
0.30803144 -0.021549525 1.3310001
0.31173334 -0.021630477 1.3360001
0.31173334 -0.019085715 1.3360001
0.31427813 -0.016540954 1.3360001
0.31563717 -0.01394381 1.3310001
0.30664381 -0.021630477 1.3360001
0.30918857 -0.019085715 1.3360001
0.31173334 -0.016540954 1.3360001
0.30664381 -0.019085715 1.3360001
0.30918857 -0.016540954 1.3360001
0.31427813 -0.013996191 1.3360001
0.3181724 -0.011408572 1.3310001
0.32070762 -0.011408572 1.3310001
0.30664381 -0.016540954 1.3360001
0.32070762 -0.0088733332 1.3310001
0.3181724 -0.0063380958 1.3310001
0.31445143 -0.0037885716 1.3260001
0.31697714 -0.0037885716 1.3260001
0.31950289 -0.0037885716 1.3260001
0.31697714 -0.0012628572 1.3260001
0.3182981 0.0012580954 1.3210001
0.31445143 -0.0012628572 1.3260001
0.31697714 0.0012628572 1.3260001
0.33591908 0.0088733332 1.3310001
0.33845431 0.0088733332 1.3310001
0.30918857 -0.013996191 1.3360001
0.31173334 -0.013996191 1.3360001
0.31173334 -0.01145143 1.3360001
0.31427813 -0.01145143 1.3360001
0.31682289 -0.01145143 1.3360001
0.31682289 -0.0089066671 1.3360001
0.31936765 -0.0089066671 1.3360001
0.3822667 0.013786667 1.3160001
0.38371906 0.016355239 1.3210001
0.38371906 0.01887143 1.3210001
0.38623527 0.031452384 1.3210001
0.38120288 0.02138762 1.3210001
0.38120288 0.023903811 1.3210001
0.38371906 0.028936192 1.3210001
0.38623527 0.033968575 1.3210001
0.38875145 0.041517146 1.3210001
0.38978669 0.048880003 1.3160001
0.39229333 0.051386669 1.3160001
0.39480004 0.051386669 1.3160001
0.39579716 0.056185719 1.3110001
0.38623527 0.036484763 1.3210001
0.38875145 0.044033337 1.3210001
0.38120288 0.028936192 1.3210001
0.38371906 0.031452384 1.3210001
0.38371906 0.033968575 1.3210001
0.38371906 0.036484763 1.3210001
0.38623527 0.039000954 1.3210001
0.38623527 0.041517146 1.3210001
0.40733337 0.058906671 1.3160001
0.4017505 0.063434288 1.3060001
0.40578574 0.063677147 1.3110001
0.40828288 0.063677147 1.3110001
0.41078001 0.063677147 1.3110001
0.41170099 0.065921903 1.3060001
0.41418859 0.068409532 1.3060001
0.41508099 0.070625715 1.3010001
0.41755909 0.070625715 1.3010001
0.42003718 0.070625715 1.3010001
0.38978669 0.051386669 1.3160001
0.39229333 0.053893339 1.3160001
0.39480004 0.056400005 1.3160001
0.39730668 0.058906671 1.3160001
0.39981338 0.058906671 1.3160001
0.40079144 0.061180007 1.3110001
0.39981338 0.06141334 1.3160001
0.40733337 0.06141334 1.3160001
0.39926291 0.063434288 1.3060001
0.40578574 0.066174291 1.3110001
0.40828288 0.066174291 1.3110001
0.41078001 0.066174291 1.3110001
0.41170099 0.068409532 1.3060001
0.40921336 0.068409532 1.3060001
0.41260287 0.070625715 1.3010001
0.38371906 0.039000954 1.3210001
0.38623527 0.044033337 1.3210001
0.38875145 0.046549525 1.3210001
0.38978669 0.053893339 1.3160001
0.39229333 0.056400005 1.3160001
0.39480004 0.058906671 1.3160001
0.39730668 0.06141334 1.3160001
0.4017505 0.065921903 1.3060001
0.39981338 0.063920006 1.3160001
0.39926291 0.065921903 1.3060001
0.40578574 0.068671428 1.3110001
0.40828288 0.068671428 1.3110001
0.41170099 0.070897147 1.3060001
0.41755909 0.073103815 1.3010001
0.41348571 0.072822854 1.296
0.41012481 0.073103815 1.3010001
0.41101712 0.072822854 1.296
0.41101712 0.075291425 1.296
0.41348571 0.075291425 1.296
0.40672576 0.070897147 1.3060001
0.40921336 0.070897147 1.3060001
0.40764672 0.073103815 1.3010001
0.4017505 0.068409532 1.3060001
0.40672576 0.073384769 1.3060001
0.40764672 0.075581908 1.3010001
0.40854859 0.075291425 1.296
0.41101712 0.077760004 1.296
0.40854859 0.077760004 1.296
0.30546477 -0.016615236 1.342
0.30546477 -0.014059047 1.342
0.30802095 -0.014059047 1.342
0.30802095 -0.011502857 1.342
0.31057712 -0.011502857 1.342
0.31173334 -0.0089066671 1.3360001
0.31427813 -0.0089066671 1.3360001
0.31173334 -0.006361905 1.3360001
0.31427813 -0.006361905 1.3360001
0.31682289 -0.006361905 1.3360001
0.31310192 -0.0038028574 1.3310001
0.31056669 -0.0038028574 1.3310001
0.31310192 -0.0012676191 1.3310001
0.30290857 -0.014059047 1.342
0.30546477 -0.011502857 1.342
0.31057712 -0.0089466665 1.342
0.30802095 -0.0089466665 1.342
0.31056669 -0.0012676191 1.3310001
0.31427813 0.0012723811 1.3360001
0.33972573 0.01145143 1.3360001
0.3786867 0.02138762 1.3210001
0.3786867 0.023903811 1.3210001
0.38120288 0.026420001 1.3210001
0.3786867 0.026420001 1.3210001
0.3786867 0.028936192 1.3210001
0.38623527 0.046549525 1.3210001
0.38875145 0.049065717 1.3210001
0.39229333 0.058906671 1.3160001
0.38371906 0.041517146 1.3210001
0.38875145 0.051581908 1.3210001
0.39229333 0.06141334 1.3160001
0.39480004 0.06141334 1.3160001
0.39730668 0.063920006 1.3160001
0.30918857 -0.0038171432 1.3360001
0.31057712 -0.0063904761 1.342
0.30664381 -0.0038171432 1.3360001
0.30664381 -0.0012723811 1.3360001
0.30918857 -0.0012723811 1.3360001
0.30918857 0.0012723811 1.3360001
0.31173334 0.0012723811 1.3360001
0.31173334 0.0038171432 1.3360001
0.31427813 0.0038171432 1.3360001
0.30918857 0.0038171432 1.3360001
0.40079144 0.068671428 1.3110001
0.4017505 0.070897147 1.3060001
0.40578574 0.071168572 1.3110001
0.40423813 0.073384769 1.3060001
0.40516859 0.075581908 1.3010001
0.40021244 0.073103815 1.3010001
0.40423813 0.075872391 1.3060001
0.40608001 0.077760004 1.296
0.40854859 0.080228567 1.296
0.37759432 0.018942859 1.3260001
0.3786867 0.01887143 1.3210001
0.38120288 0.01887143 1.3210001
0.37759432 0.021468572 1.3260001
0.38264573 0.031571429 1.3260001
0.38120288 0.039000954 1.3210001
0.37254286 0.021468572 1.3260001
0.37506858 0.021468572 1.3260001
0.37506858 0.023994287 1.3260001
0.37759432 0.023994287 1.3260001
0.37901813 0.026620002 1.3310001
0.38012004 0.031571429 1.3260001
0.38012004 0.034097143 1.3260001
0.38264573 0.034097143 1.3260001
0.38264573 0.03662286 1.3260001
0.37901813 0.029155241 1.3310001
0.38012004 0.039148573 1.3260001
0.38264573 0.04167429 1.3260001
0.38517144 0.044200003 1.3260001
0.38623527 0.049065717 1.3210001
0.38264573 0.044200003 1.3260001
0.38517144 0.046725716 1.3260001
0.38875145 0.054098099 1.3210001
0.39126763 0.056614287 1.3210001
0.39080289 0.063677147 1.3110001
0.39480004 0.063920006 1.3160001
0.39730668 0.066426672 1.3160001
0.39981338 0.066426672 1.3160001
0.39480004 0.066426672 1.3160001
0.39579716 0.068671428 1.3110001
0.39981338 0.068933338 1.3160001
0.40079144 0.071168572 1.3110001
0.40079144 0.073665723 1.3110001
0.40021244 0.075581908 1.3010001
0.4026905 0.078060001 1.3010001
0.40361142 0.077760004 1.296
0.40608001 0.080228567 1.296
0.39926291 0.075872391 1.3060001
0.40021244 0.078060001 1.3010001
0.4026905 0.080538101 1.3010001
0.40361142 0.080228567 1.296
0.30290857 -0.011502857 1.342
0.30546477 -0.0089466665 1.342
0.30802095 -0.0063904761 1.342
0.30290857 -0.0089466665 1.342
0.30546477 -0.0063904761 1.342
0.36973336 0.013786667 1.3160001
0.37224001 0.013786667 1.3160001
0.37474671 0.013786667 1.3160001
0.37725335 0.013786667 1.3160001
0.38120288 0.013839048 1.3210001
0.36862195 0.016355239 1.3210001
0.37113813 0.016355239 1.3210001
0.37365431 0.016355239 1.3210001
0.37617052 0.016355239 1.3210001
0.37725335 0.016293336 1.3160001
0.38120288 0.016355239 1.3210001
0.37001717 0.018942859 1.3260001
0.37254286 0.018942859 1.3260001
0.37506858 0.018942859 1.3260001
0.37001717 0.021468572 1.3260001
0.37648287 0.026620002 1.3310001
0.36749145 0.016417144 1.3260001
0.37648287 0.029155241 1.3310001
0.37901813 0.031690478 1.3310001
0.37901813 0.034225717 1.3310001
0.38155335 0.036760956 1.3310001
0.37394762 0.024084764 1.3310001
0.37394762 0.026620002 1.3310001
0.37901813 0.036760956 1.3310001
0.37901813 0.039296191 1.3310001
0.38155335 0.041831434 1.3310001
0.38517144 0.049251433 1.3260001
0.38517144 0.051777147 1.3260001
0.38769716 0.051777147 1.3260001
0.38769716 0.05430286 1.3260001
0.38875145 0.056614287 1.3210001
0.39126763 0.059130482 1.3210001
0.39126763 0.06164667 1.3210001
0.38155335 0.044366669 1.3310001
0.38408861 0.046901904 1.3310001
0.38875145 0.06164667 1.3210001
0.3714124 0.024084764 1.3310001
0.3714124 0.026620002 1.3310001
0.37789717 0.031809524 1.3360001
0.37789717 0.034354288 1.3360001
0.37789717 0.036899049 1.3360001
0.38155335 0.046901904 1.3310001
0.38408861 0.049437147 1.3310001
0.38769716 0.056828577 1.3260001
0.38769716 0.05935429 1.3260001
0.39022288 0.05935429 1.3260001
0.38408861 0.051972382 1.3310001
0.38662383 0.054507624 1.3310001
0.38875145 0.064162858 1.3210001
0.39126763 0.064162858 1.3210001
0.39229333 0.066426672 1.3160001
0.39330003 0.068671428 1.3110001
0.39126763 0.066679053 1.3210001
0.39229333 0.068933338 1.3160001
0.37789717 0.039443813 1.3360001
0.38044193 0.041988574 1.3360001
0.38408861 0.054507624 1.3310001
0.38662383 0.057042859 1.3310001
0.38517144 0.061880007 1.3260001
0.38769716 0.061880007 1.3260001
0.38875145 0.066679053 1.3210001
0.39981338 0.071440004 1.3160001
0.39229333 0.071440004 1.3160001
0.39480004 0.071440004 1.3160001
0.39730668 0.071440004 1.3160001
0.39730668 0.07394667 1.3160001
0.39829433 0.073665723 1.3110001
0.39126763 0.069195241 1.3210001
0.39480004 0.07394667 1.3160001
0.39926291 0.078360006 1.3060001
0.40021244 0.080538101 1.3010001
0.37535241 0.029264765 1.3360001
0.37535241 0.031809524 1.3360001
0.37535241 0.034354288 1.3360001
0.38408861 0.057042859 1.3310001
0.38662383 0.059578098 1.3310001
0.38769716 0.064405717 1.3260001
0.38623527 0.069195241 1.3210001
0.38875145 0.069195241 1.3210001
0.39126763 0.071711436 1.3210001
0.39229333 0.07394667 1.3160001
0.39829433 0.076162867 1.3110001
0.39730668 0.076453343 1.3160001
0.39829433 0.078660011 1.3110001
0.30546477 -0.0038342858 1.342
0.34380764 0.0089466665 1.342
0.34765434 0.0089800004 1.3470001
0.34891999 0.0089466665 1.342
0.35147616 0.0089466665 1.342
0.33718094 0.01145143 1.3360001
0.34380764 0.011502857 1.342
0.34636381 0.011502857 1.342
0.34891999 0.011502857 1.342
0.35147616 0.011502857 1.342
0.33869523 0.014059047 1.342
0.34125143 0.014059047 1.342
0.34508857 0.014111429 1.3470001
0.34891999 0.014059047 1.342
0.35147616 0.014059047 1.342
0.33869523 0.016615236 1.342
0.34252289 0.016677145 1.3470001
0.3540324 0.0089466665 1.342
0.3540324 0.011502857 1.342
0.34765434 0.014111429 1.3470001
0.34508857 0.016677145 1.3470001
0.35147616 0.016615236 1.342
0.35147616 0.01917143 1.342
0.36496574 0.016417144 1.3260001
0.36887714 0.019014288 1.3310001
0.36887714 0.021549525 1.3310001
0.36887714 0.024084764 1.3310001
0.37535241 0.036899049 1.3360001
0.36634192 0.021549525 1.3310001
0.37026289 0.02672 1.3360001
0.37280765 0.029264765 1.3360001
0.37026289 0.029264765 1.3360001
0.37280765 0.031809524 1.3360001
0.37280765 0.034354288 1.3360001
0.37535241 0.039443813 1.3360001
0.37789717 0.041988574 1.3360001
0.38044193 0.044533335 1.3360001
0.37789717 0.044533335 1.3360001
0.37789717 0.047078099 1.3360001
0.38044193 0.047078099 1.3360001
0.38044193 0.04962286 1.3360001
0.38298666 0.04962286 1.3360001
0.38298666 0.052167624 1.3360001
0.38408861 0.059578098 1.3310001
0.38517144 0.066931434 1.3260001
0.38769716 0.066931434 1.3260001
0.38875145 0.071711436 1.3210001
0.37535241 0.041988574 1.3360001
0.37789717 0.04962286 1.3360001
0.38044193 0.052167624 1.3360001
0.38298666 0.054712381 1.3360001
0.37026289 0.031809524 1.3360001
0.37026289 0.034354288 1.3360001
0.37280765 0.036899049 1.3360001
0.37280765 0.039443813 1.3360001
0.37535241 0.044533335 1.3360001
0.39926291 0.080847628 1.3060001
0.38662383 0.064648576 1.3310001
0.38517144 0.069457151 1.3260001
0.38623527 0.071711436 1.3210001
0.38371906 0.071711436 1.3210001
0.38728005 0.07394667 1.3160001
0.39126763 0.074227624 1.3210001
0.38477334 0.07394667 1.3160001
0.38728005 0.076453343 1.3160001
0.38298666 0.057257146 1.3360001
0.38408861 0.064648576 1.3310001
0.38264573 0.069457151 1.3260001
0.38371906 0.074227624 1.3210001
0.38477334 0.076453343 1.3160001
0.38875145 0.079260007 1.3210001
0.35535145 0.014111429 1.3470001
0.34894478 0.01673905 1.3520001
0.35022002 0.016677145 1.3470001
0.3540324 0.016615236 1.342
0.35658857 0.016615236 1.342
0.34121907 0.019314287 1.3520001
0.34379432 0.019314287 1.3520001
0.34636953 0.019314287 1.3520001
0.35022002 0.019242859 1.3470001
0.35658857 0.01917143 1.342
0.33864382 0.021889525 1.3520001
0.34121907 0.021889525 1.3520001
0.34379432 0.021889525 1.3520001
0.35022002 0.021808574 1.3470001
0.35278577 0.021808574 1.3470001
0.3540324 0.021727618 1.342
0.36771813 0.024175238 1.3360001
0.36771813 0.02672 1.3360001
0.36771813 0.029264765 1.3360001
0.38044193 0.057257146 1.3360001
0.38298666 0.059801906 1.3360001
0.38408861 0.067183815 1.3310001
0.38264573 0.071982868 1.3260001
0.37789717 0.057257146 1.3360001
0.38044193 0.059801906 1.3360001
0.38298666 0.062346671 1.3360001
0.38553143 0.062346671 1.3360001
0.38155335 0.067183815 1.3310001
0.38012004 0.071982868 1.3260001
0.38264573 0.074508578 1.3260001
0.38120288 0.076743819 1.3210001
0.38371906 0.076743819 1.3210001
0.38623527 0.079260007 1.3210001
0.38534382 0.080538101 1.3010001
0.38286573 0.080538101 1.3010001
0.38286573 0.083016194 1.3010001
0.38534382 0.083016194 1.3010001
0.36262858 0.019085715 1.3360001
0.36517337 0.019085715 1.3360001
0.36634192 0.019014288 1.3310001
0.36262858 0.021630477 1.3360001
0.36517337 0.021630477 1.3360001
0.36517337 0.024175238 1.3360001
0.36262858 0.02672 1.3360001
0.36517337 0.02672 1.3360001
0.36008382 0.021630477 1.3360001
0.36008382 0.024175238 1.3360001
0.36425713 0.02428381 1.342
0.36008382 0.02672 1.3360001
0.36425713 0.029396191 1.342
0.36681333 0.029396191 1.342
0.36681333 0.031952381 1.342
0.36936954 0.031952381 1.342
0.36936954 0.034508571 1.342
0.36425713 0.031952381 1.342
0.36681333 0.034508571 1.342
0.36681333 0.037064761 1.342
0.36936954 0.037064761 1.342
0.37192571 0.037064761 1.342
0.36936954 0.039620955 1.342
0.37192571 0.039620955 1.342
0.37448189 0.042177141 1.342
0.37192571 0.042177141 1.342
0.37448189 0.044733334 1.342
0.36425713 0.034508571 1.342
0.36681333 0.039620955 1.342
0.36936954 0.042177141 1.342
0.37192571 0.044733334 1.342
0.37192571 0.047289524 1.342
0.37448189 0.047289524 1.342
0.37703809 0.047289524 1.342
0.37703809 0.049845714 1.342
0.37448189 0.049845714 1.342
0.3795943 0.052401904 1.342
0.37703809 0.052401904 1.342
0.38215047 0.054958098 1.342
0.37789717 0.059801906 1.3360001
0.37448189 0.052401904 1.342
0.3795943 0.054958098 1.342
0.37703809 0.054958098 1.342
0.37789717 0.062346671 1.3360001
0.38044193 0.062346671 1.3360001
0.38298666 0.064891428 1.3360001
0.38155335 0.069719046 1.3310001
0.38371906 0.079260007 1.3210001
0.38184956 0.080847628 1.3060001
0.38012004 0.074508578 1.3260001
0.38120288 0.079260007 1.3210001
0.38371906 0.081776194 1.3210001
0.38286573 0.085494287 1.3010001
0.36380669 0.016479049 1.3310001
0.36008382 0.016540954 1.3360001
0.36262858 0.016540954 1.3360001
0.35914475 0.01917143 1.342
0.36170095 0.01917143 1.342
0.35914475 0.021727618 1.342
0.35914475 0.02428381 1.342
0.36170095 0.029396191 1.342
0.36170095 0.031952381 1.342
0.36425713 0.037064761 1.342
0.35914475 0.016615236 1.342
0.36170095 0.034508571 1.342
0.36425713 0.039620955 1.342
0.36681333 0.042177141 1.342
0.36936954 0.044733334 1.342
0.36681333 0.044733334 1.342
0.36936954 0.047289524 1.342
0.37192571 0.049845714 1.342
0.35914475 0.026839999 1.342
0.36170095 0.037064761 1.342
0.36425713 0.042177141 1.342
0.36681333 0.047289524 1.342
0.36936954 0.049845714 1.342
0.36681333 0.049845714 1.342
0.37192571 0.052401904 1.342
0.37448189 0.054958098 1.342
0.37192571 0.054958098 1.342
0.37703809 0.057514284 1.342
0.37789717 0.064891428 1.3360001
0.38044193 0.064891428 1.3360001
0.37703809 0.060070477 1.342
0.37789717 0.067436196 1.3360001
0.38044193 0.067436196 1.3360001
0.37901813 0.069719046 1.3310001
0.37648287 0.069719046 1.3310001
0.37901813 0.072254293 1.3310001
0.38012004 0.077034295 1.3260001
0.37448189 0.057514284 1.342
0.37448189 0.060070477 1.342
0.37648287 0.072254293 1.3310001
0.37901813 0.074789532 1.3310001
0.37759432 0.077034295 1.3260001
0.35658857 0.02428381 1.342
0.35658857 0.026839999 1.342
0.36048287 0.029505717 1.3470001
0.36304861 0.039768573 1.3470001
0.3656143 0.044900004 1.3470001
0.36304861 0.042334288 1.3470001
0.3656143 0.047465719 1.3470001
0.37506858 0.077034295 1.3260001
0.37759432 0.079560012 1.3260001
0.3786867 0.079260007 1.3210001
0.38120288 0.081776194 1.3210001
0.3786867 0.081776194 1.3210001
0.38371906 0.084292382 1.3210001
0.38120288 0.084292382 1.3210001
0.36304861 0.044900004 1.3470001
0.3656143 0.050031431 1.3470001
0.36818004 0.052597146 1.3470001
0.37074572 0.052597146 1.3470001
0.37074572 0.055162862 1.3470001
0.37331146 0.057728577 1.3470001
0.37365431 0.079260007 1.3210001
0.37617052 0.081776194 1.3210001
0.3786867 0.084292382 1.3210001
0.38120288 0.086808577 1.3210001
0.38371906 0.086808577 1.3210001
0.38038766 0.083016194 1.3010001
0.36048287 0.03207143 1.3470001
0.36048287 0.034637146 1.3470001
0.36048287 0.037202861 1.3470001
0.36048287 0.039768573 1.3470001
0.37254286 0.079560012 1.3260001
0.37254286 0.082085714 1.3260001
0.37365431 0.081776194 1.3210001
0.37365431 0.084292382 1.3210001
0.37617052 0.084292382 1.3210001
0.3786867 0.086808577 1.3210001
0.35791719 0.014111429 1.3470001
0.34894478 0.019314287 1.3520001
0.35535145 0.019242859 1.3470001
0.34636953 0.021889525 1.3520001
0.34894478 0.021889525 1.3520001
0.35658857 0.021727618 1.342
0.34894478 0.024464764 1.3520001
0.35278577 0.024374288 1.3470001
0.35535145 0.024374288 1.3470001
0.3360686 0.024464764 1.3520001
0.34273335 0.024573334 1.358
0.34531999 0.024573334 1.358
0.34790668 0.024573334 1.358
0.35152003 0.024464764 1.3520001
0.35152003 0.027040001 1.3520001
0.35278577 0.026940003 1.3470001
0.35535145 0.026940003 1.3470001
0.32712862 0.024374288 1.3470001
0.35535145 0.029505717 1.3470001
0.35791719 0.029505717 1.3470001
0.32456288 0.024374288 1.3470001
0.34014669 0.024573334 1.358
0.32456288 0.026940003 1.3470001
0.32712862 0.026940003 1.3470001
0.3360686 0.027040001 1.3520001
0.32712862 0.029505717 1.3470001
0.34014669 0.027160002 1.358
0.34273335 0.027160002 1.358
0.34531999 0.027160002 1.358
0.34790668 0.027160002 1.358
0.35049334 0.027160002 1.358
0.35049334 0.029746667 1.358
0.35409525 0.02961524 1.3520001
0.35791719 0.03207143 1.3470001
0.3219972 0.024374288 1.3470001
0.32456288 0.029505717 1.3470001
0.32712862 0.03207143 1.3470001
0.3296943 0.03207143 1.3470001
0.33756003 0.029746667 1.358
0.34790668 0.032333333 1.358
0.35409525 0.032190479 1.3520001
0.35308 0.029746667 1.358
0.35049334 0.032333333 1.358
0.3566705 0.032190479 1.3520001
0.35791719 0.034637146 1.3470001
0.35409525 0.034765717 1.3520001
0.35791719 0.037202861 1.3470001
0.36048287 0.042334288 1.3470001
0.35791719 0.039768573 1.3470001
0.36048287 0.044900004 1.3470001
0.36304861 0.050031431 1.3470001
0.3656143 0.052597146 1.3470001
0.36818004 0.055162862 1.3470001
0.37074572 0.057728577 1.3470001
0.3656143 0.055162862 1.3470001
0.36818004 0.057728577 1.3470001
0.36304861 0.052597146 1.3470001
0.37469718 0.060518101 1.3520001
0.37617052 0.086808577 1.3210001
0.36048287 0.047465719 1.3470001
0.36304861 0.055162862 1.3470001
0.37212193 0.060518101 1.3520001
0.37469718 0.063093342 1.3520001
0.35791719 0.042334288 1.3470001
0.35791719 0.044900004 1.3470001
0.36439621 0.047641911 1.3520001
0.36048287 0.050031431 1.3470001
0.37113813 0.084292382 1.3210001
0.37365431 0.086808577 1.3210001
0.36862195 0.081776194 1.3210001
0.36862195 0.084292382 1.3210001
0.37113813 0.086808577 1.3210001
0.38038766 0.085494287 1.3010001
0.36862195 0.086808577 1.3210001
0.34139904 0.029856192 1.363
0.34399524 0.029856192 1.363
0.34659144 0.029856192 1.363
0.34918761 0.029856192 1.363
0.34399524 0.032452382 1.363
0.34659144 0.032452382 1.363
0.35308 0.032333333 1.358
0.34790668 0.03492 1.358
0.35049334 0.03492 1.358
0.35308 0.03492 1.358
0.32462665 0.021986667 1.358
0.33620667 0.032452382 1.363
0.33880287 0.032452382 1.363
0.34139904 0.032452382 1.363
0.3296943 0.034637146 1.3470001
0.33497334 0.03492 1.358
0.33880287 0.035048574 1.363
0.34139904 0.035048574 1.363
0.34399524 0.035048574 1.363
0.34659144 0.035048574 1.363
0.3566705 0.037340954 1.3520001
0.32203999 0.021986667 1.358
0.32061717 0.024464764 1.3520001
0.32203999 0.027160002 1.358
0.3219972 0.026940003 1.3470001
0.32061717 0.02961524 1.3520001
0.3219972 0.029505717 1.3470001
0.32456288 0.03207143 1.3470001
0.32456288 0.034637146 1.3470001
0.32712862 0.034637146 1.3470001
0.32712862 0.037202861 1.3470001
0.3296943 0.037202861 1.3470001
0.33497334 0.037506666 1.358
0.33880287 0.037644763 1.363
0.34139904 0.037644763 1.363
0.34399524 0.037644763 1.363
0.33497334 0.040093333 1.358
0.34659144 0.037644763 1.363
0.34918761 0.037644763 1.363
0.35308 0.037506666 1.358
0.35825333 0.03492 1.358
0.35566667 0.037506666 1.358
0.3566705 0.039916191 1.3520001
0.36954671 0.060518101 1.3520001
0.37212193 0.063093342 1.3520001
0.36697146 0.05794286 1.3520001
0.36697146 0.060518101 1.3520001
0.36954671 0.063093342 1.3520001
0.36954671 0.065668575 1.3520001
0.35409525 0.042491432 1.3520001
0.3566705 0.042491432 1.3520001
0.35791719 0.047465719 1.3470001
0.3566705 0.04506667 1.3520001
0.35791719 0.050031431 1.3470001
0.35566667 0.040093333 1.358
0.35409525 0.04506667 1.3520001
0.3566705 0.047641911 1.3520001
0.36048287 0.052597146 1.3470001
0.35409525 0.047641911 1.3520001
0.35278577 0.050031431 1.3470001
0.3566705 0.050217148 1.3520001
0.35535145 0.052597146 1.3470001
0.35791719 0.052597146 1.3470001
0.36048287 0.055162862 1.3470001
0.35791719 0.055162862 1.3470001
0.36439621 0.05794286 1.3520001
0.35152003 0.047641911 1.3520001
0.35278577 0.052597146 1.3470001
0.35535145 0.055162862 1.3470001
0.35791719 0.057728577 1.3470001
0.36182097 0.05794286 1.3520001
0.36182097 0.060518101 1.3520001
0.36439621 0.060518101 1.3520001
0.36697146 0.063093342 1.3520001
0.36439621 0.063093342 1.3520001
0.36697146 0.065668575 1.3520001
0.35924575 0.060518101 1.3520001
0.36182097 0.063093342 1.3520001
0.36439621 0.065668575 1.3520001
0.36697146 0.068243816 1.3520001
0.35308 0.040093333 1.358
0.35308 0.042680003 1.358
0.34894478 0.047641911 1.3520001
0.35152003 0.050217148 1.3520001
0.35022002 0.052597146 1.3470001
0.35278577 0.055162862 1.3470001
0.35535145 0.057728577 1.3470001
0.35278577 0.057728577 1.3470001
0.35308 0.045266669 1.358
0.34894478 0.050217148 1.3520001
0.35022002 0.055162862 1.3470001
0.3566705 0.060518101 1.3520001
0.35924575 0.063093342 1.3520001
0.35022002 0.057728577 1.3470001
0.36182097 0.065668575 1.3520001
0.36439621 0.068243816 1.3520001
0.35178381 0.037644763 1.363
0.35049334 0.042680003 1.358
0.35178381 0.040240955 1.363
0.35049334 0.045266669 1.358
0.34894478 0.052792381 1.3520001
0.34790668 0.047853336 1.358
0.34894478 0.055367623 1.3520001
0.35566667 0.060786664 1.358
0.34790668 0.050440002 1.358
0.34894478 0.05794286 1.3520001
0.35308 0.060786664 1.358
0.35566667 0.063373335 1.358
0.35825333 0.063373335 1.358
0.36084002 0.065960005 1.358
0.35825333 0.065960005 1.358
0.36342669 0.068546668 1.358
0.36084002 0.068546668 1.358
0.36601335 0.071133338 1.358
0.36859998 0.071133338 1.358
0.36342669 0.071133338 1.358
0.36859998 0.073720008 1.358
0.34918761 0.040240955 1.363
0.34918761 0.042837143 1.363
0.31945333 0.024573334 1.358
0.31945333 0.027160002 1.358
0.31945333 0.029746667 1.358
0.31945333 0.032333333 1.358
0.32203999 0.032333333 1.358
0.3219972 0.03207143 1.3470001
0.32203999 0.03492 1.358
0.3219972 0.034637146 1.3470001
0.3219972 0.037202861 1.3470001
0.32456288 0.037202861 1.3470001
0.32456288 0.039768573 1.3470001
0.33238667 0.040093333 1.358
0.33880287 0.040240955 1.363
0.34265143 0.040388573 1.368
0.34525716 0.040388573 1.368
0.34786287 0.040388573 1.368
0.33880287 0.042837143 1.363
0.34399524 0.042837143 1.363
0.34659144 0.042837143 1.363
0.31428 0.024573334 1.358
0.3168667 0.024573334 1.358
0.31428 0.027160002 1.358
0.31803334 0.02726 1.363
0.31428 0.029746667 1.358
0.31803334 0.029856192 1.363
0.32203999 0.037506666 1.358
0.3219972 0.039768573 1.3470001
0.31284094 0.02466381 1.363
0.32062954 0.035048574 1.363
0.33620667 0.042837143 1.363
0.31284094 0.02726 1.363
0.31803334 0.035048574 1.363
0.32062954 0.037644763 1.363
0.33361048 0.042837143 1.363
0.34265143 0.042994287 1.368
0.33620667 0.045433335 1.363
0.33880287 0.045433335 1.363
0.34139904 0.045433335 1.363
0.34399524 0.045433335 1.363
0.34659144 0.045433335 1.363
0.34918761 0.045433335 1.363
0.34659144 0.048029523 1.363
0.31024477 0.02466381 1.363
0.31284094 0.029856192 1.363
0.33361048 0.045433335 1.363
0.33361048 0.048029523 1.363
0.33620667 0.048029523 1.363
0.33880287 0.048029523 1.363
0.34139904 0.048029523 1.363
0.34399524 0.048029523 1.363
0.34399524 0.050625715 1.363
0.34659144 0.050625715 1.363
0.34790668 0.053026669 1.358
0.34790668 0.055613335 1.358
0.35049334 0.060786664 1.358
0.35308 0.063373335 1.358
0.35566667 0.065960005 1.358
0.35825333 0.068546668 1.358
0.36084002 0.071133338 1.358
0.36601335 0.073720008 1.358
0.35825333 0.071133338 1.358
0.36342669 0.073720008 1.358
0.34790668 0.058200002 1.358
0.35049334 0.063373335 1.358
0.36601335 0.076306671 1.358
0.34790668 0.060786664 1.358
0.36084002 0.073720008 1.358
0.36342669 0.076306671 1.358
0.33620667 0.050625715 1.363
0.33880287 0.050625715 1.363
0.34139904 0.050625715 1.363
0.34659144 0.053221907 1.363
0.31024477 0.022067619 1.363
0.31284094 0.022067619 1.363
0.31543717 0.022067619 1.363
0.31803334 0.022067619 1.363
0.31945333 0.021986667 1.358
0.31024477 0.02726 1.363
0.31024477 0.029856192 1.363
0.31138286 0.032571428 1.368
0.31284094 0.032452382 1.363
0.3165943 0.032571428 1.368
0.31920001 0.032571428 1.368
0.33361048 0.050625715 1.363
0.33361048 0.053221907 1.363
0.33620667 0.053221907 1.363
0.33880287 0.053221907 1.363
0.34265143 0.053417142 1.368
0.34525716 0.053417142 1.368
0.33361048 0.055818096 1.363
0.33620667 0.055818096 1.363
0.33880287 0.055818096 1.363
0.34139904 0.055818096 1.363
0.34399524 0.055818096 1.363
0.34659144 0.055818096 1.363
0.33361048 0.058414288 1.363
0.33620667 0.058414288 1.363
0.33880287 0.058414288 1.363
0.35437998 0.066202857 1.363
0.35697621 0.068799049 1.363
0.35566667 0.071133338 1.358
0.35825333 0.073720008 1.358
0.36084002 0.076306671 1.358
0.35437998 0.068799049 1.363
0.35178381 0.066202857 1.363
0.35437998 0.071395241 1.363
0.35566667 0.073720008 1.358
0.35825333 0.076306671 1.358
0.35308 0.073720008 1.358
0.35409525 0.075969525 1.3520001
0.34659144 0.058414288 1.363
0.34399524 0.058414288 1.363
0.34139904 0.058414288 1.363
0.34659144 0.06101048 1.363
0.34918761 0.063606672 1.363
0.34399524 0.06101048 1.363
0.35178381 0.068799049 1.363
0.35152003 0.075969525 1.3520001
0.34659144 0.063606672 1.363
0.34918761 0.066202857 1.363
0.34918761 0.068799049 1.363
0.34659144 0.066202857 1.363
0.34918761 0.071395241 1.363
0.35178381 0.071395241 1.363
0.35178381 0.073991433 1.363
0.35278577 0.07825429 1.3470001
0.34399524 0.063606672 1.363
0.34399524 0.066202857 1.363
0.34659144 0.068799049 1.363
0.34659144 0.071395241 1.363
0.35049334 0.076306671 1.358
0.34918761 0.073991433 1.363
0.35022002 0.07825429 1.3470001
0.33880287 0.06101048 1.363
0.33620667 0.06101048 1.363
0.34399524 0.068799049 1.363
0.34399524 0.071395241 1.363
0.34790668 0.076306671 1.358
0.34894478 0.078544766 1.3520001
0.34659144 0.073991433 1.363
0.3540324 0.080519997 1.342
0.34265143 0.061234292 1.368
0.34265143 0.063839994 1.368
0.33361048 0.06101048 1.363
0.33620667 0.063606672 1.363
0.34004572 0.066445716 1.368
0.34265143 0.066445716 1.368
0.34265143 0.069051422 1.368
0.34265143 0.071657151 1.368
0.34399524 0.073991433 1.363
0.34531999 0.076306671 1.358
0.33361048 0.063606672 1.363
0.33620667 0.066202857 1.363
0.33620667 0.068799049 1.363
0.34004572 0.069051422 1.368
0.34004572 0.071657151 1.368
0.34139904 0.073991433 1.363
0.34273335 0.076306671 1.358
0.34636953 0.078544766 1.3520001
0.31651336 0.035460003 1.3790001
0.31914002 0.035460003 1.3790001
0.31914002 0.038086668 1.3790001
0.32176667 0.038086668 1.3790001
0.34153715 0.064120002 1.3740001
0.33620667 0.071395241 1.363
0.33880287 0.073991433 1.363
0.34139904 0.076587617 1.363
0.34273335 0.078893334 1.358
0.34379432 0.078544766 1.3520001
0.34636953 0.081120007 1.3520001
0.34765434 0.080820009 1.3470001
0.34014669 0.078893334 1.358
0.34379432 0.081120007 1.3520001
0.35147616 0.080519997 1.342
0.33620667 0.073991433 1.363
0.33880287 0.076587617 1.363
0.3540324 0.083076194 1.342
0.30997622 0.032976195 1.3850001
0.31261429 0.032976195 1.3850001
0.31525239 0.035614289 1.3850001
0.3178905 0.038252383 1.3850001
0.3205286 0.040890481 1.3850001
0.32316667 0.040890481 1.3850001
0.33238667 0.076306671 1.358
0.33497334 0.076306671 1.358
0.33880287 0.079183817 1.363
0.34014669 0.081479996 1.358
0.34121907 0.081120007 1.3520001
0.34891999 0.080519997 1.342
0.34508857 0.083385721 1.3470001
0.35147616 0.083076194 1.342
0.33620667 0.079183817 1.363
0.33756003 0.081479996 1.358
0.34121907 0.08369524 1.3520001
0.34252289 0.083385721 1.3470001
0.34891999 0.083076194 1.342
0.33620667 0.081780002 1.363
0.33880287 0.084376194 1.363
0.33864382 0.08369524 1.3520001
0.34636381 0.083076194 1.342
0.33995715 0.085951433 1.3470001
0.34125143 0.085632384 1.342
0.34380764 0.085632384 1.342
0.34636381 0.085632384 1.342
0.34891999 0.085632384 1.342
0.34990478 0.085249528 1.3360001
0.35244954 0.085249528 1.3360001
0.34380764 0.088188574 1.342
0.34636381 0.088188574 1.342
0.34891999 0.088188574 1.342
0.35244954 0.087794289 1.3360001
0.34636381 0.090744756 1.342
0.34891999 0.090744756 1.342
0.33497334 0.084066667 1.358
0.33756003 0.086653329 1.358
0.33739147 0.085951433 1.3470001
0.33739147 0.088517152 1.3470001
0.34125143 0.088188574 1.342
0.34990478 0.087794289 1.3360001
0.34380764 0.090744756 1.342
0.33238667 0.078893334 1.358
0.33869523 0.088188574 1.342
0.33869523 0.090744756 1.342
0.34125143 0.090744756 1.342
0.33497334 0.086653329 1.358
0.33756003 0.08924 1.358
0.33739147 0.091082864 1.3470001
