# .PCD v0.7 - Point Cloud Data file format
VERSION 0.7
FIELDS x y z
SIZE 4 4 4
TYPE F F F
COUNT 1 1 1
WIDTH 164
HEIGHT 1
VIEWPOINT 0 0 0 1 0 0 0
POINTS 164
DATA ascii
0.91393149 -0.94286859 2.5320001
0.91875428 -0.94286859 2.5320001
0.92357719 -0.94286859 2.5320001
0.92839998 -0.94286859 2.5320001
0.93322289 -0.94286859 2.5320001
0.89464003 -0.93804568 2.5320001
0.89946288 -0.93804568 2.5320001
0.90428573 -0.93804568 2.5320001
0.90910858 -0.93804568 2.5320001
0.91393149 -0.93804568 2.5320001
0.91875428 -0.93804568 2.5320001
0.92357719 -0.93804568 2.5320001
0.92839998 -0.93804568 2.5320001
0.93322289 -0.93804568 2.5320001
0.89946288 -0.93322289 2.5320001
0.90428573 -0.93322289 2.5320001
0.90910858 -0.93322289 2.5320001
0.91393149 -0.93322289 2.5320001
0.91875428 -0.93322289 2.5320001
0.92357719 -0.93322289 2.5320001
0.92839998 -0.93322289 2.5320001
0.90428573 -0.92839998 2.5320001
0.90910858 -0.92839998 2.5320001
0.91393149 -0.92839998 2.5320001
0.91875428 -0.92839998 2.5320001
0.92357719 -0.92839998 2.5320001
0.93804568 -0.94286859 2.5320001
0.93804568 -0.93804568 2.5320001
0.93322289 -0.93322289 2.5320001
0.92839998 -0.92839998 2.5320001
0.94286859 -0.94286859 2.5320001
0.94286859 -0.93804568 2.5320001
0.93804568 -0.93322289 2.5320001
0.93322289 -0.92839998 2.5320001
0.94769144 -0.94286859 2.5320001
0.94769144 -0.93804568 2.5320001
0.94286859 -0.93322289 2.5320001
0.95251429 -0.94286859 2.5320001
0.95251429 -0.93804568 2.5320001
0.87534857 -0.93804568 2.5320001
0.88017148 -0.93804568 2.5320001
0.88499427 -0.93804568 2.5320001
0.88981718 -0.93804568 2.5320001
0.87534857 -0.93322289 2.5320001
0.88017148 -0.93322289 2.5320001
0.88499427 -0.93322289 2.5320001
0.88981718 -0.93322289 2.5320001
0.89464003 -0.93322289 2.5320001
0.88017148 -0.92839998 2.5320001
0.88499427 -0.92839998 2.5320001
0.88981718 -0.92839998 2.5320001
0.89464003 -0.92839998 2.5320001
0.89946288 -0.92839998 2.5320001
0.95251429 -0.93322289 2.5320001
0.9573372 -0.94286859 2.5320001
0.9573372 -0.93804568 2.5320001
0.9573372 -0.93322289 2.5320001
0.9305076 -0.92564857 2.5510001
0.96215999 -0.94286859 2.5320001
0.96215999 -0.93804568 2.5320001
0.96215999 -0.93322289 2.5320001
0.94095433 -0.92658865 2.5140002
0.9669829 -0.94286859 2.5320001
0.9669829 -0.93804568 2.5320001
0.9669829 -0.93322289 2.5320001
0.96215999 -0.92839998 2.5320001
0.97180569 -0.94286859 2.5320001
0.97180569 -0.93804568 2.5320001
0.97180569 -0.93322289 2.5320001
0.9669829 -0.92839998 2.5320001
0.86088002 -0.93804568 2.5320001
0.86570287 -0.93804568 2.5320001
0.87052572 -0.93804568 2.5320001
0.85605717 -0.93322289 2.5320001
0.86088002 -0.93322289 2.5320001
0.86570287 -0.93322289 2.5320001
0.87052572 -0.93322289 2.5320001
0.86088002 -0.92839998 2.5320001
0.86570287 -0.92839998 2.5320001
0.87052572 -0.92839998 2.5320001
0.87534857 -0.92839998 2.5320001
0.85605717 -0.92839998 2.5320001
0.87705815 -0.92564857 2.5510001
0.88191718 -0.92564857 2.5510001
0.97180569 -0.92839998 2.5320001
0.97662866 -0.94286859 2.5320001
0.97662866 -0.93804568 2.5320001
0.97662866 -0.93322289 2.5320001
0.97662866 -0.92839998 2.5320001
0.98145145 -0.94286859 2.5320001
0.98145145 -0.93804568 2.5320001
0.98145145 -0.93322289 2.5320001
0.98145145 -0.92839998 2.5320001
0.9862743 -0.94286859 2.5320001
0.9862743 -0.93804568 2.5320001
0.9862743 -0.93322289 2.5320001
0.9862743 -0.92839998 2.5320001
0.99109709 -0.94286859 2.5320001
0.99109709 -0.93804568 2.5320001
0.99109709 -0.93322289 2.5320001
0.99109709 -0.92839998 2.5320001
0.84641141 -0.92839998 2.5320001
0.85123432 -0.92839998 2.5320001
0.85276288 -0.9305076 2.5510001
0.85762197 -0.9305076 2.5510001
0.862481 -0.9305076 2.5510001
0.85762197 -0.92564857 2.5510001
0.86734003 -0.92564857 2.5510001
0.87219906 -0.92564857 2.5510001
0.85276288 -0.92564857 2.5510001
0.99592006 -0.93804568 2.5320001
0.99592006 -0.93322289 2.5320001
0.99592006 -0.92839998 2.5320001
0.9888401 -0.93616575 2.5140002
0.99362862 -0.93616575 2.5140002
0.99362862 -0.93137717 2.5140002
0.99841726 -0.93616575 2.5140002
0.99841726 -0.93137717 2.5140002
0.84304476 -0.92564857 2.5510001
0.84790379 -0.92564857 2.5510001
0.8333267 -0.9305076 2.5510001
0.83818573 -0.9305076 2.5510001
0.84304476 -0.9305076 2.5510001
0.84790379 -0.9305076 2.5510001
0.84932381 -0.92764771 2.5700002
0.85421908 -0.92764771 2.5700002
0.86400962 -0.92764771 2.5700002
0.85421908 -0.92275244 2.5700002
0.85911435 -0.92275244 2.5700002
0.86400962 -0.92275244 2.5700002
0.86890477 -0.92275244 2.5700002
0.8333267 -0.92564857 2.5510001
0.84932381 -0.92275244 2.5700002
1.0032058 -0.93616575 2.5140002
1.0032058 -0.93137717 2.5140002
1.0079943 -0.93616575 2.5140002
1.0079943 -0.93137717 2.5140002
1.0055314 -0.92946291 2.4960001
0.82360864 -0.92564857 2.5510001
0.83953339 -0.92275244 2.5700002
0.84442866 -0.92275244 2.5700002
0.82974291 -0.92764771 2.5700002
0.83463812 -0.92764771 2.5700002
0.83953339 -0.92764771 2.5700002
0.84442866 -0.92764771 2.5700002
0.86890477 -0.92764771 2.5700002
0.83463812 -0.92275244 2.5700002
0.82974291 -0.92275244 2.5700002
1.0102857 -0.92946291 2.4960001
1.01504 -0.92946291 2.4960001
1.0197943 -0.92946291 2.4960001
0.81995243 -0.92275244 2.5700002
0.8248477 -0.92275244 2.5700002
0.81016195 -0.92764771 2.5700002
0.81505722 -0.92764771 2.5700002
0.81995243 -0.92764771 2.5700002
0.8248477 -0.92764771 2.5700002
0.81505722 -0.92275244 2.5700002
0.82601434 -0.92464292 2.5890002
0.81016195 -0.92275244 2.5700002
0.80037147 -0.92275244 2.5700002
0.80526668 -0.92275244 2.5700002
0.80037147 -0.92764771 2.5700002
0.80526668 -0.92764771 2.5700002
