# .PCD v0.7 - Point Cloud Data file format
VERSION 0.7
FIELDS x y z
SIZE 4 4 4
TYPE F F F
COUNT 1 1 1
WIDTH 326
HEIGHT 1
VIEWPOINT 0 0 0 1 0 0 0
POINTS 326
DATA ascii
0.48350286 0.14516 1.146
0.48568571 0.14516 1.146
0.48957148 0.14566667 1.1500001
0.49176192 0.14566667 1.1500001
0.49395239 0.14566667 1.1500001
0.49614292 0.14566667 1.1500001
0.49833339 0.14566667 1.1500001
0.4622981 0.14824286 1.153
0.46328574 0.14785716 1.1500001
0.46547621 0.14785716 1.1500001
0.46888664 0.14824286 1.153
0.47108284 0.14824286 1.153
0.47327903 0.14824286 1.153
0.47547522 0.14824286 1.153
0.47932857 0.14875714 1.1570001
0.48153242 0.14875714 1.1570001
0.48373622 0.14875714 1.1570001
0.48594001 0.14875714 1.1570001
0.48519051 0.14785716 1.1500001
0.48738098 0.14785716 1.1500001
0.48957148 0.14785716 1.1500001
0.49176192 0.14785716 1.1500001
0.49524093 0.14824286 1.153
0.49743715 0.14824286 1.153
0.49963331 0.14824286 1.153
0.50182956 0.14824286 1.153
0.43012285 0.15148287 1.161
0.4323343 0.15148287 1.161
0.43304858 0.15096095 1.1570001
0.4352524 0.15096095 1.1570001
0.43480957 0.15004763 1.1500001
0.43814 0.15043904 1.153
0.4403362 0.15043904 1.153
0.44253236 0.15043904 1.153
0.44357145 0.15004763 1.1500001
0.44576195 0.15004763 1.1500001
0.45067906 0.15096095 1.1570001
0.45288289 0.15096095 1.1570001
0.45508671 0.15096095 1.1570001
0.45570952 0.15043904 1.153
0.45790571 0.15043904 1.153
0.4601019 0.15043904 1.153
0.4622981 0.15043904 1.153
0.46449429 0.15043904 1.153
0.46547621 0.15004763 1.1500001
0.46888664 0.15043904 1.153
0.47108284 0.15043904 1.153
0.47327903 0.15043904 1.153
0.47547522 0.15043904 1.153
0.47767141 0.15043904 1.153
0.47986761 0.15043904 1.153
0.4820638 0.15043904 1.153
0.48425999 0.15043904 1.153
0.48519051 0.15004763 1.1500001
0.48738098 0.15004763 1.1500001
0.48957148 0.15004763 1.1500001
0.49176192 0.15004763 1.1500001
0.49524093 0.15043904 1.153
0.49743715 0.15043904 1.153
0.49833339 0.15004763 1.1500001
0.5035705 0.15096095 1.1570001
0.50752282 0.15148287 1.161
0.50973427 0.15148287 1.161
0.42864096 0.15316477 1.1570001
0.43084478 0.15316477 1.1570001
0.43155143 0.15263523 1.153
0.43374762 0.15263523 1.153
0.43594381 0.15263523 1.153
0.43700004 0.1522381 1.1500001
0.4403362 0.15263523 1.153
0.44138098 0.1522381 1.1500001
0.44357145 0.1522381 1.1500001
0.44576195 0.1522381 1.1500001
0.44912094 0.15263523 1.153
0.45288289 0.15316477 1.1570001
0.45351332 0.15263523 1.153
0.45570952 0.15263523 1.153
0.45790571 0.15263523 1.153
0.4601019 0.15263523 1.153
0.4622981 0.15263523 1.153
0.46449429 0.15263523 1.153
0.46547621 0.1522381 1.1500001
0.46766672 0.1522381 1.1500001
0.47108284 0.15263523 1.153
0.47327903 0.15263523 1.153
0.47547522 0.15263523 1.153
0.47767141 0.15263523 1.153
0.47986761 0.15263523 1.153
0.4820638 0.15263523 1.153
0.48425999 0.15263523 1.153
0.48519051 0.1522381 1.1500001
0.48738098 0.1522381 1.1500001
0.48957148 0.1522381 1.1500001
0.49176192 0.1522381 1.1500001
0.49395239 0.1522381 1.1500001
0.49743715 0.15263523 1.153
0.49963331 0.15263523 1.153
0.50182956 0.15263523 1.153
0.50752282 0.15369429 1.161
0.50973427 0.15369429 1.161
0.42715904 0.15483142 1.153
0.42935523 0.15483142 1.153
0.43155143 0.15483142 1.153
0.43261907 0.15442857 1.1500001
0.43329716 0.15389143 1.146
0.43700004 0.15442857 1.1500001
0.43919051 0.15442857 1.1500001
0.44138098 0.15442857 1.1500001
0.44357145 0.15442857 1.1500001
0.44576195 0.15442857 1.1500001
0.44795242 0.15442857 1.1500001
0.45014289 0.15442857 1.1500001
0.45233336 0.15442857 1.1500001
0.45452383 0.15442857 1.1500001
0.45671433 0.15442857 1.1500001
0.4589048 0.15442857 1.1500001
0.4622981 0.15483142 1.153
0.46328574 0.15442857 1.1500001
0.46547621 0.15442857 1.1500001
0.46766672 0.15442857 1.1500001
0.47271717 0.15536858 1.1570001
0.47327903 0.15483142 1.153
0.47547522 0.15483142 1.153
0.47767141 0.15483142 1.153
0.47986761 0.15483142 1.153
0.4820638 0.15483142 1.153
0.48425999 0.15483142 1.153
0.48645619 0.15483142 1.153
0.48738098 0.15442857 1.1500001
0.48957148 0.15442857 1.1500001
0.49176192 0.15442857 1.1500001
0.49524093 0.15483142 1.153
0.49743715 0.15483142 1.153
0.49963331 0.15483142 1.153
0.50182956 0.15483142 1.153
0.5040257 0.15483142 1.153
0.42715904 0.15702762 1.153
0.42935523 0.15702762 1.153
0.43042859 0.15661906 1.1500001
0.43261907 0.15661906 1.1500001
0.43329716 0.15607429 1.146
0.43548 0.15607429 1.146
0.43766287 0.15607429 1.146
0.43984571 0.15607429 1.146
0.44202858 0.15607429 1.146
0.44421142 0.15607429 1.146
0.44639429 0.15607429 1.146
0.44857714 0.15607429 1.146
0.45076001 0.15607429 1.146
0.45294285 0.15607429 1.146
0.45512572 0.15607429 1.146
0.45730859 0.15607429 1.146
0.46109527 0.15661906 1.1500001
0.46328574 0.15661906 1.1500001
0.46547621 0.15661906 1.1500001
0.46888664 0.15702762 1.153
0.47271717 0.15757239 1.1570001
0.47327903 0.15702762 1.153
0.47547522 0.15702762 1.153
0.47767141 0.15702762 1.153
0.4786191 0.15661906 1.1500001
0.4820638 0.15702762 1.153
0.48425999 0.15702762 1.153
0.48645619 0.15702762 1.153
0.48738098 0.15661906 1.1500001
0.49084857 0.15702762 1.153
0.49304476 0.15702762 1.153
0.49524093 0.15702762 1.153
0.49916288 0.15757239 1.1570001
0.50136673 0.15757239 1.1570001
0.5035705 0.15757239 1.1570001
0.50577432 0.15757239 1.1570001
0.50797808 0.15757239 1.1570001
0.42823812 0.15880954 1.1500001
0.43042859 0.15880954 1.1500001
0.43111429 0.15825714 1.146
0.43178478 0.15770477 1.1420001
0.43396002 0.15770477 1.1420001
0.43766287 0.15825714 1.146
0.43984571 0.15825714 1.146
0.44202858 0.15825714 1.146
0.44421142 0.15825714 1.146
0.44639429 0.15825714 1.146
0.44701144 0.15770477 1.1420001
0.44918668 0.15770477 1.1420001
0.45136192 0.15770477 1.1420001
0.45512572 0.15825714 1.146
0.45730859 0.15825714 1.146
0.46109527 0.15880954 1.1500001
0.46328574 0.15880954 1.1500001
0.46547621 0.15880954 1.1500001
0.46766672 0.15880954 1.1500001
0.47108284 0.15922381 1.153
0.47327903 0.15922381 1.153
0.47547522 0.15922381 1.153
0.47767141 0.15922381 1.153
0.47986761 0.15922381 1.153
0.4820638 0.15922381 1.153
0.48594001 0.1597762 1.1570001
0.48814383 0.1597762 1.1570001
0.48865241 0.15922381 1.153
0.49084857 0.15922381 1.153
0.49304476 0.15922381 1.153
0.49695906 0.1597762 1.1570001
0.49916288 0.1597762 1.1570001
0.50136673 0.1597762 1.1570001
0.5035705 0.1597762 1.1570001
0.50577432 0.1597762 1.1570001
0.50797808 0.1597762 1.1570001
0.42823812 0.16100001 1.1500001
0.43042859 0.16100001 1.1500001
0.43111429 0.16044 1.146
0.43178478 0.15988001 1.1420001
0.43396002 0.15988001 1.1420001
0.43613526 0.15988001 1.1420001
0.4383105 0.15988001 1.1420001
0.44048575 0.15988001 1.1420001
0.44266099 0.15988001 1.1420001
0.44483623 0.15988001 1.1420001
0.44544572 0.15932 1.138
0.44918668 0.15988001 1.1420001
0.45136192 0.15988001 1.1420001
0.45512572 0.16044 1.146
0.45730859 0.16044 1.146
0.45949143 0.16044 1.146
0.4616743 0.16044 1.146
0.46547621 0.16100001 1.1500001
0.46604002 0.16044 1.146
0.46822286 0.16044 1.146
0.47204766 0.16100001 1.1500001
0.47547522 0.16142 1.153
0.47767141 0.16142 1.153
0.4786191 0.16100001 1.1500001
0.4820638 0.16142 1.153
0.48594001 0.16198 1.1570001
0.48814383 0.16198 1.1570001
0.48865241 0.16142 1.153
0.49084857 0.16142 1.153
0.49304476 0.16142 1.153
0.49695906 0.16198 1.1570001
0.49916288 0.16198 1.1570001
0.50136673 0.16198 1.1570001
0.5035705 0.16198 1.1570001
0.43042859 0.1631905 1.1500001
0.42960954 0.16205524 1.1420001
0.43178478 0.16205524 1.1420001
0.43396002 0.16205524 1.1420001
0.43460763 0.16148761 1.138
0.43677524 0.16148761 1.138
0.43894288 0.16148761 1.138
0.44111049 0.16148761 1.138
0.4432781 0.16148761 1.138
0.44388002 0.16091999 1.1340001
0.44761336 0.16148761 1.138
0.44820002 0.16091999 1.1340001
0.45036003 0.16091999 1.1340001
0.45252001 0.16091999 1.1340001
0.45949143 0.16262285 1.146
0.4616743 0.16262285 1.146
0.46547621 0.1631905 1.1500001
0.46604002 0.16262285 1.146
0.46822286 0.16262285 1.146
0.47204766 0.1631905 1.1500001
0.47547522 0.16361618 1.153
0.47767141 0.16361618 1.153
0.4786191 0.1631905 1.1500001
0.48373622 0.16418381 1.1570001
0.48594001 0.16418381 1.1570001
0.48814383 0.16418381 1.1570001
0.49034765 0.16418381 1.1570001
0.49255145 0.16418381 1.1570001
0.49304476 0.16361618 1.153
0.49695906 0.16418381 1.1570001
0.49916288 0.16418381 1.1570001
0.50136673 0.16418381 1.1570001
0.42960954 0.1642305 1.1420001
0.4302724 0.16365524 1.138
0.43244001 0.16365524 1.138
0.43308005 0.16308001 1.1340001
0.43524 0.16308001 1.1340001
0.43740001 0.16308001 1.1340001
0.43956003 0.16308001 1.1340001
0.44172004 0.16308001 1.1340001
0.44270572 0.16264857 1.131
0.44486001 0.16264857 1.131
0.4470143 0.16264857 1.131
0.44916859 0.16264857 1.131
0.45132285 0.16264857 1.131
0.48540857 0.16696286 1.161
0.48930001 0.16753811 1.1650001
0.49151906 0.16753811 1.1650001
0.49373814 0.16753811 1.1650001
0.4959572 0.16753811 1.1650001
0.4302724 0.16582285 1.138
0.43092003 0.16524 1.1340001
0.4319343 0.16480285 1.131
0.43408859 0.16480285 1.131
0.43624288 0.16480285 1.131
0.43839714 0.16480285 1.131
0.44172004 0.16524 1.1340001
0.44270572 0.16480285 1.131
0.44486001 0.16480285 1.131
0.4470143 0.16480285 1.131
0.44916859 0.16480285 1.131
0.45132285 0.16480285 1.131
0.48540857 0.16917428 1.161
0.48761997 0.16917428 1.161
0.48983142 0.16917428 1.161
0.49204287 0.16917428 1.161
0.4959572 0.16975716 1.1650001
0.43092003 0.1674 1.1340001
0.4319343 0.16695715 1.131
0.43408859 0.16695715 1.131
0.43624288 0.16695715 1.131
0.43839714 0.16695715 1.131
0.44172004 0.1674 1.1340001
0.44270572 0.16695715 1.131
0.44486001 0.16695715 1.131
0.4470143 0.16695715 1.131
0.48540857 0.17138572 1.161
0.48761997 0.17138572 1.161
0.48983142 0.17138572 1.161
0.49204287 0.17138572 1.161
0.44172004 0.16956 1.1340001
0.44270572 0.16911143 1.131
0.44486001 0.16911143 1.131
