# .PCD v0.7 - Point Cloud Data file format
VERSION 0.7
FIELDS x y z
SIZE 4 4 4
TYPE F F F
COUNT 1 1 1
WIDTH 594
HEIGHT 1
VIEWPOINT 0 0 0 1 0 0 0
POINTS 594
DATA ascii
0.8532629 -0.29577714 1.626
0.85214669 -0.29432189 1.618
0.85522854 -0.29432189 1.618
0.85016572 -0.29268 1.626
0.8532629 -0.29268 1.626
0.85636002 -0.29268 1.626
0.85152858 -0.28997999 1.6110001
0.85459715 -0.28997999 1.6110001
0.85340667 -0.28854001 1.603
0.85646003 -0.28854001 1.603
0.84397149 -0.28958288 1.626
0.84290099 -0.28815809 1.618
0.84598291 -0.28815809 1.618
0.8532629 -0.28958288 1.626
0.85636002 -0.28958288 1.626
0.85152858 -0.28691146 1.6110001
0.85459715 -0.28691146 1.6110001
0.85340667 -0.28548667 1.603
0.85646003 -0.28548667 1.603
0.84397149 -0.2864857 1.626
0.84290099 -0.2850762 1.618
0.84598291 -0.2850762 1.618
0.8532629 -0.2864857 1.626
0.85636002 -0.2864857 1.626
0.85152858 -0.28384286 1.6110001
0.85459715 -0.28384286 1.6110001
0.85766572 -0.28384286 1.6110001
0.86073434 -0.28384286 1.6110001
0.83981901 -0.28199428 1.618
0.83925432 -0.2807743 1.6110001
0.84232289 -0.2807743 1.6110001
0.84539145 -0.2807743 1.6110001
0.85636002 -0.28338858 1.626
0.85152858 -0.2807743 1.6110001
0.85459715 -0.2807743 1.6110001
0.85340667 -0.27937999 1.603
0.85646003 -0.27937999 1.603
0.83203334 -0.27632666 1.603
0.83144003 -0.27511999 1.5960001
0.84232289 -0.27770573 1.6110001
0.84539145 -0.27770573 1.6110001
0.85214669 -0.27891237 1.618
0.85152858 -0.27770573 1.6110001
0.85459715 -0.27770573 1.6110001
0.85766572 -0.27770573 1.6110001
0.85646003 -0.27632666 1.603
0.82840008 -0.27208 1.5960001
0.83144003 -0.27208 1.5960001
0.83448005 -0.27208 1.5960001
0.84119338 -0.27327335 1.603
0.84846002 -0.27463716 1.6110001
0.84730005 -0.27327335 1.603
0.85459715 -0.27463716 1.6110001
0.85340667 -0.27327335 1.603
0.85646003 -0.27327335 1.603
0.82536006 -0.26903999 1.5960001
0.8247667 -0.26786003 1.5890001
0.82779336 -0.26786003 1.5890001
0.83082008 -0.26786003 1.5890001
0.83752006 -0.26903999 1.5960001
0.84424669 -0.27022001 1.603
0.84360003 -0.26903999 1.5960001
0.84664005 -0.26903999 1.5960001
0.84595335 -0.26786003 1.5890001
0.84898007 -0.26786003 1.5890001
0.82536006 -0.266 1.5960001
0.8247667 -0.26483333 1.5890001
0.82779336 -0.26483333 1.5890001
0.83082008 -0.26483333 1.5890001
0.83752006 -0.266 1.5960001
0.84056002 -0.266 1.5960001
0.84360003 -0.266 1.5960001
0.83868289 -0.26350001 1.5810001
0.84169436 -0.26350001 1.5810001
0.84470576 -0.26350001 1.5810001
0.81871337 -0.26180667 1.5890001
0.82174009 -0.26180667 1.5890001
0.8247667 -0.26180667 1.5890001
0.82362574 -0.26048857 1.5810001
0.82663721 -0.26048857 1.5810001
0.83384669 -0.26180667 1.5890001
0.83687335 -0.26180667 1.5890001
0.83567148 -0.26048857 1.5810001
0.83868289 -0.26048857 1.5810001
0.84169436 -0.26048857 1.5810001
0.84470576 -0.26048857 1.5810001
0.81871337 -0.25878003 1.5890001
0.82174009 -0.25878003 1.5890001
0.82061428 -0.25747716 1.5810001
0.82362574 -0.25747716 1.5810001
0.82663721 -0.25747716 1.5810001
0.82964861 -0.25747716 1.5810001
0.83266002 -0.25747716 1.5810001
0.83567148 -0.25747716 1.5810001
0.83868289 -0.25747716 1.5810001
0.84169436 -0.25747716 1.5810001
0.84470576 -0.25747716 1.5810001
0.81871337 -0.25575334 1.5890001
0.82174009 -0.25575334 1.5890001
0.82061428 -0.25446573 1.5810001
0.82362574 -0.25446573 1.5810001
0.82663721 -0.25446573 1.5810001
0.82964861 -0.25446573 1.5810001
0.83266002 -0.25446573 1.5810001
0.83567148 -0.25446573 1.5810001
0.83496958 -0.25333905 1.5740001
0.84169436 -0.25446573 1.5810001
0.84470576 -0.25446573 1.5810001
0.81871337 -0.25272667 1.5890001
0.82174009 -0.25272667 1.5890001
0.82061428 -0.25145429 1.5810001
0.82362574 -0.25145429 1.5810001
0.82297719 -0.25034097 1.5740001
0.82964861 -0.25145429 1.5810001
0.83266002 -0.25145429 1.5810001
0.83567148 -0.25145429 1.5810001
0.83496958 -0.25034097 1.5740001
0.83796769 -0.25034097 1.5740001
0.84470576 -0.25145429 1.5810001
0.8247667 -0.24970002 1.5890001
0.82362574 -0.24844287 1.5810001
0.82663721 -0.24844287 1.5810001
0.82964861 -0.24844287 1.5810001
0.83266002 -0.24844287 1.5810001
0.83567148 -0.24844287 1.5810001
0.83496958 -0.24734287 1.5740001
0.84169436 -0.24844287 1.5810001
0.84898007 -0.24970002 1.5890001
0.85200673 -0.24970002 1.5890001
0.82061428 -0.24543142 1.5810001
0.82779336 -0.24667335 1.5890001
0.82663721 -0.24543142 1.5810001
0.82964861 -0.24543142 1.5810001
0.83266002 -0.24543142 1.5810001
0.83567148 -0.24543142 1.5810001
0.83868289 -0.24543142 1.5810001
0.84169436 -0.24543142 1.5810001
0.84470576 -0.24543142 1.5810001
0.84771717 -0.24543142 1.5810001
0.85072863 -0.24543142 1.5810001
0.85374004 -0.24543142 1.5810001
0.82061428 -0.24242002 1.5810001
0.82779336 -0.24364667 1.5890001
0.83082008 -0.24364667 1.5890001
0.82964861 -0.24242002 1.5810001
0.83266002 -0.24242002 1.5810001
0.83567148 -0.24242002 1.5810001
0.83496958 -0.24134669 1.5740001
0.84169436 -0.24242002 1.5810001
0.84470576 -0.24242002 1.5810001
0.84396386 -0.24134669 1.5740001
0.84696198 -0.24134669 1.5740001
0.84996003 -0.24134669 1.5740001
0.82362574 -0.23940858 1.5810001
0.82663721 -0.23940858 1.5810001
0.8259753 -0.23834859 1.5740001
0.82897335 -0.23834859 1.5740001
0.83197147 -0.23834859 1.5740001
0.83496958 -0.23834859 1.5740001
0.84169436 -0.23940858 1.5810001
0.84096575 -0.23834859 1.5740001
0.84396386 -0.23834859 1.5740001
0.84319526 -0.23728856 1.567
0.84618002 -0.23728856 1.567
0.82061428 -0.23639715 1.5810001
0.82362574 -0.23639715 1.5810001
0.82663721 -0.23639715 1.5810001
0.8259753 -0.23535049 1.5740001
0.83266002 -0.23639715 1.5810001
0.83197147 -0.23535049 1.5740001
0.83496958 -0.23535049 1.5740001
0.83796769 -0.23535049 1.5740001
0.84096575 -0.23535049 1.5740001
0.84396386 -0.23535049 1.5740001
0.84319526 -0.23430382 1.567
0.84618002 -0.23430382 1.567
0.83144003 -0.23560001 1.5960001
0.82663721 -0.23338571 1.5810001
0.82964861 -0.23338571 1.5810001
0.82897335 -0.23235239 1.5740001
0.83197147 -0.23235239 1.5740001
0.83496958 -0.23235239 1.5740001
0.83796769 -0.23235239 1.5740001
0.84096575 -0.23235239 1.5740001
0.8402105 -0.23131905 1.567
0.84319526 -0.23131905 1.567
0.84618002 -0.23131905 1.567
0.82840008 -0.23256001 1.5960001
0.83144003 -0.23256001 1.5960001
0.82663721 -0.23037431 1.5810001
0.82964861 -0.23037431 1.5810001
0.83266002 -0.23037431 1.5810001
0.83197147 -0.22935431 1.5740001
0.83496958 -0.22935431 1.5740001
0.83796769 -0.22935431 1.5740001
0.84096575 -0.22935431 1.5740001
0.84396386 -0.22935431 1.5740001
0.84319526 -0.22833429 1.567
0.84618002 -0.22833429 1.567
0.82536006 -0.22952001 1.5960001
0.82061428 -0.22736287 1.5810001
0.82779336 -0.22851335 1.5890001
0.82663721 -0.22736287 1.5810001
0.8259753 -0.22635619 1.5740001
0.82897335 -0.22635619 1.5740001
0.83197147 -0.22635619 1.5740001
0.83868289 -0.22736287 1.5810001
0.84169436 -0.22736287 1.5810001
0.84096575 -0.22635619 1.5740001
0.84396386 -0.22635619 1.5740001
0.84696198 -0.22635619 1.5740001
0.84996003 -0.22635619 1.5740001
0.82536006 -0.22648001 1.5960001
0.8247667 -0.22548668 1.5890001
0.82362574 -0.22435144 1.5810001
0.82663721 -0.22435144 1.5810001
0.8259753 -0.22335811 1.5740001
0.82897335 -0.22335811 1.5740001
0.83197147 -0.22335811 1.5740001
0.83496958 -0.22335811 1.5740001
0.83796769 -0.22335811 1.5740001
0.84096575 -0.22335811 1.5740001
0.84396386 -0.22335811 1.5740001
0.84696198 -0.22335811 1.5740001
0.84996003 -0.22335811 1.5740001
0.82536006 -0.22344001 1.5960001
0.8247667 -0.22246002 1.5890001
0.83508664 -0.22442001 1.603
0.83082008 -0.22246002 1.5890001
0.82964861 -0.22134002 1.5810001
0.83266002 -0.22134002 1.5810001
0.83197147 -0.22036001 1.5740001
0.83868289 -0.22134002 1.5810001
0.83796769 -0.22036001 1.5740001
0.84096575 -0.22036001 1.5740001
0.84396386 -0.22036001 1.5740001
0.84696198 -0.22036001 1.5740001
0.84996003 -0.22036001 1.5740001
0.83508664 -0.22136667 1.603
0.83082008 -0.21943334 1.5890001
0.82964861 -0.21832858 1.5810001
0.83266002 -0.21832858 1.5810001
0.83567148 -0.21832858 1.5810001
0.83868289 -0.21832858 1.5810001
0.84169436 -0.21832858 1.5810001
0.84470576 -0.21832858 1.5810001
0.84396386 -0.21736191 1.5740001
0.84696198 -0.21736191 1.5740001
0.84996003 -0.21736191 1.5740001
0.82964861 -0.21531714 1.5810001
0.83687335 -0.21640669 1.5890001
0.83567148 -0.21531714 1.5810001
0.83868289 -0.21531714 1.5810001
0.84169436 -0.21531714 1.5810001
0.84470576 -0.21531714 1.5810001
0.84396386 -0.21436383 1.5740001
0.84696198 -0.21436383 1.5740001
0.83687335 -0.21338001 1.5890001
0.83567148 -0.21230571 1.5810001
0.83868289 -0.21230571 1.5810001
0.84169436 -0.21230571 1.5810001
0.84096575 -0.21136573 1.5740001
0.84396386 -0.21136573 1.5740001
0.84696198 -0.21136573 1.5740001
0.83990008 -0.21035334 1.5890001
0.83868289 -0.2092943 1.5810001
0.84169436 -0.2092943 1.5810001
0.84470576 -0.2092943 1.5810001
0.84396386 -0.20836763 1.5740001
0.84696198 -0.20836763 1.5740001
0.83990008 -0.20732667 1.5890001
0.83868289 -0.20628287 1.5810001
0.83796769 -0.20536953 1.5740001
0.84096575 -0.20536953 1.5740001
0.84396386 -0.20536953 1.5740001
0.84696198 -0.20536953 1.5740001
0.83868289 -0.20327143 1.5810001
0.83796769 -0.20237145 1.5740001
0.84096575 -0.20237145 1.5740001
0.84396386 -0.20237145 1.5740001
0.84696198 -0.20237145 1.5740001
0.84292674 -0.20127335 1.5890001
0.84595335 -0.20127335 1.5890001
0.84470576 -0.20026001 1.5810001
0.84396386 -0.19937333 1.5740001
0.84696198 -0.19937333 1.5740001
0.84424669 -0.19999334 1.603
0.84360003 -0.19912 1.5960001
0.84292674 -0.19824667 1.5890001
0.84595335 -0.19824667 1.5890001
0.84470576 -0.19724858 1.5810001
0.84396386 -0.19637525 1.5740001
0.84696198 -0.19637525 1.5740001
0.84424669 -0.19694 1.603
0.84360003 -0.19608 1.5960001
0.84664005 -0.19608 1.5960001
0.84595335 -0.19522001 1.5890001
0.84470576 -0.19423714 1.5810001
0.84771717 -0.19423714 1.5810001
0.85072863 -0.19423714 1.5810001
0.84119338 -0.19388667 1.603
0.84424669 -0.19388667 1.603
0.84360003 -0.19304001 1.5960001
0.84664005 -0.19304001 1.5960001
0.84968007 -0.19304001 1.5960001
0.84898007 -0.19219334 1.5890001
0.84771717 -0.19122572 1.5810001
0.85072863 -0.19122572 1.5810001
0.84119338 -0.19083333 1.603
0.84424669 -0.19083333 1.603
0.84360003 -0.19000001 1.5960001
0.84664005 -0.19000001 1.5960001
0.84968007 -0.19000001 1.5960001
0.84470576 -0.1882143 1.5810001
0.84771717 -0.1882143 1.5810001
0.85072863 -0.1882143 1.5810001
0.84119338 -0.18778001 1.603
0.84424669 -0.18778001 1.603
0.84730005 -0.18778001 1.603
0.84664005 -0.18696001 1.5960001
0.84968007 -0.18696001 1.5960001
0.84898007 -0.18614 1.5890001
0.85200673 -0.18614 1.5890001
0.85503334 -0.18614 1.5890001
0.85152858 -0.19187143 1.6650001
0.85470003 -0.19187143 1.6650001
0.84119338 -0.18472667 1.603
0.84424669 -0.18472667 1.603
0.84730005 -0.18472667 1.603
0.84664005 -0.18392001 1.5960001
0.84968007 -0.18392001 1.5960001
0.84898007 -0.18311334 1.5890001
0.85200673 -0.18311334 1.5890001
0.85503334 -0.18311334 1.5890001
0.8587029 -0.19244 1.6980001
0.85787618 -0.19153333 1.6900001
0.85650957 -0.19051334 1.6810001
0.85562003 -0.18960667 1.6730001
0.85470003 -0.18870001 1.6650001
0.85787141 -0.18870001 1.6650001
0.86104286 -0.18870001 1.6650001
0.86006194 -0.18779334 1.6570001
0.86321813 -0.18779334 1.6570001
0.86637431 -0.18779334 1.6570001
0.84539145 -0.18258001 1.6110001
0.84424669 -0.18167333 1.603
0.84730005 -0.18167333 1.603
0.84664005 -0.18088001 1.5960001
0.84595335 -0.18008669 1.5890001
0.84470576 -0.17918001 1.5810001
0.84771717 -0.17918001 1.5810001
0.85072863 -0.17918001 1.5810001
0.8587029 -0.18920572 1.6980001
0.85787618 -0.18831429 1.6900001
0.85650957 -0.18731144 1.6810001
0.85562003 -0.18642001 1.6730001
0.85880673 -0.18642001 1.6730001
0.86199337 -0.18642001 1.6730001
0.86104286 -0.18552858 1.6650001
0.86006194 -0.18463714 1.6570001
0.85905051 -0.18374571 1.649
0.85016572 -0.18118286 1.626
0.84539145 -0.17951143 1.6110001
0.84424669 -0.17862001 1.603
0.84730005 -0.17862001 1.603
0.84664005 -0.17784001 1.5960001
0.84968007 -0.17784001 1.5960001
0.84898007 -0.17706001 1.5890001
0.84771717 -0.17616858 1.5810001
0.85072863 -0.17616858 1.5810001
0.8587029 -0.18597142 1.6980001
0.85787618 -0.18509524 1.6900001
0.85650957 -0.18410954 1.6810001
0.85562003 -0.18323334 1.6730001
0.85470003 -0.18235715 1.6650001
0.85787141 -0.18235715 1.6650001
0.86104286 -0.18235715 1.6650001
0.86006194 -0.18148096 1.6570001
0.85905051 -0.18060477 1.649
0.8543486 -0.1789619 1.6340001
0.84906477 -0.17720953 1.618
0.84424669 -0.17556667 1.603
0.84730005 -0.17556667 1.603
0.84664005 -0.17480001 1.5960001
0.84595335 -0.17403334 1.5890001
0.84470576 -0.17315716 1.5810001
0.84771717 -0.17315716 1.5810001
0.85072863 -0.17315716 1.5810001
0.8587029 -0.18273714 1.6980001
0.85787618 -0.18187618 1.6900001
0.85650957 -0.18090764 1.6810001
0.85971147 -0.18090764 1.6810001
0.85880673 -0.18004668 1.6730001
0.85787141 -0.17918572 1.6650001
0.86104286 -0.17918572 1.6650001
0.86006194 -0.17832477 1.6570001
0.85905051 -0.17746381 1.649
0.8543486 -0.17584954 1.6340001
0.84906477 -0.17412762 1.618
0.84424669 -0.17251334 1.603
0.84730005 -0.17251334 1.603
0.84664005 -0.17176001 1.5960001
0.84595335 -0.17100666 1.5890001
0.84470576 -0.17014572 1.5810001
0.84771717 -0.17014572 1.5810001
0.85072863 -0.17014572 1.5810001
0.8587029 -0.17950286 1.6980001
0.85787618 -0.17865716 1.6900001
0.85650957 -0.17770573 1.6810001
0.85562003 -0.17686002 1.6730001
0.85880673 -0.17686002 1.6730001
0.85787141 -0.17601429 1.6650001
0.86104286 -0.17601429 1.6650001
0.86006194 -0.17516857 1.6570001
0.85905051 -0.17432286 1.649
0.8543486 -0.17273715 1.6340001
0.84906477 -0.17104572 1.618
0.84846002 -0.17030573 1.6110001
0.84730005 -0.16946 1.603
0.84664005 -0.16872001 1.5960001
0.84595335 -0.16798002 1.5890001
0.84470576 -0.1671343 1.5810001
0.84771717 -0.1671343 1.5810001
0.85072863 -0.1671343 1.5810001
0.85787618 -0.17543811 1.6900001
0.85650957 -0.17450383 1.6810001
0.85562003 -0.17367335 1.6730001
0.85880673 -0.17367335 1.6730001
0.85787141 -0.17284288 1.6650001
0.86104286 -0.17284288 1.6650001
0.86006194 -0.17201239 1.6570001
0.85905051 -0.17118192 1.649
0.8543486 -0.16962476 1.6340001
0.8532629 -0.16879429 1.626
0.85214669 -0.1679638 1.618
0.85152858 -0.16723713 1.6110001
0.85035336 -0.16640668 1.603
0.84169436 -0.16412286 1.5810001
0.84470576 -0.16412286 1.5810001
0.84396386 -0.16339619 1.5740001
0.84696198 -0.16339619 1.5740001
0.85650957 -0.17130192 1.6810001
0.85971147 -0.17130192 1.6810001
0.85880673 -0.17048667 1.6730001
0.85787141 -0.16967145 1.6650001
0.86104286 -0.16967145 1.6650001
0.85590953 -0.16804096 1.649
0.85488284 -0.16722572 1.641
0.8543486 -0.16651239 1.6340001
0.84906477 -0.16488191 1.618
0.84846002 -0.16416858 1.6110001
0.84730005 -0.16335334 1.603
0.84664005 -0.16264001 1.5960001
0.84169436 -0.16111143 1.5810001
0.84470576 -0.16111143 1.5810001
0.84396386 -0.16039811 1.5740001
0.84696198 -0.16039811 1.5740001
0.85243338 -0.1673 1.6730001
0.85562003 -0.1673 1.6730001
0.85880673 -0.1673 1.6730001
0.85787141 -0.16650002 1.6650001
0.86104286 -0.16650002 1.6650001
0.86006194 -0.1657 1.6570001
0.85488284 -0.16410001 1.641
0.8543486 -0.16340001 1.6340001
0.8532629 -0.16260001 1.626
0.85214669 -0.1618 1.618
0.85152858 -0.1611 1.6110001
0.84664005 -0.1596 1.5960001
0.84169436 -0.15810001 1.5810001
0.84470576 -0.15810001 1.5810001
0.84396386 -0.15740001 1.5740001
0.84696198 -0.15740001 1.5740001
0.85243338 -0.16411334 1.6730001
0.85562003 -0.16411334 1.6730001
0.85880673 -0.16411334 1.6730001
0.85787141 -0.16332857 1.6650001
0.85690576 -0.16254382 1.6570001
0.85590953 -0.16175905 1.649
0.85488284 -0.16097429 1.641
0.85800856 -0.16097429 1.641
0.8532629 -0.15950286 1.626
0.85214669 -0.15871809 1.618
0.85152858 -0.15803143 1.6110001
0.85035336 -0.15724668 1.603
0.84595335 -0.15587334 1.5890001
0.84470576 -0.15508857 1.5810001
0.84396386 -0.15440191 1.5740001
0.84696198 -0.15440191 1.5740001
0.85880673 -0.16092667 1.6730001
0.85374951 -0.15938763 1.6570001
0.85690576 -0.15938763 1.6570001
0.85590953 -0.15861811 1.649
0.85488284 -0.15784857 1.641
0.85800856 -0.15784857 1.641
0.85746098 -0.15717524 1.6340001
0.85636002 -0.15640572 1.626
0.85522854 -0.15563619 1.618
0.85035336 -0.15419333 1.603
0.84968007 -0.15352002 1.5960001
0.84470576 -0.15207715 1.5810001
0.84396386 -0.15140381 1.5740001
0.84696198 -0.15140381 1.5740001
0.85880673 -0.15774001 1.6730001
0.85374951 -0.15623143 1.6570001
0.8527686 -0.15547715 1.649
0.85175717 -0.15472285 1.641
0.85488284 -0.15472285 1.641
0.85800856 -0.15472285 1.641
0.8532629 -0.15330857 1.626
0.85636002 -0.15330857 1.626
0.85522854 -0.15255429 1.618
0.85035336 -0.15114 1.603
0.84595335 -0.14982 1.5890001
0.84470576 -0.14906572 1.5810001
0.85200673 -0.14982 1.5890001
0.85503334 -0.14982 1.5890001
0.85880673 -0.15455334 1.6730001
0.85787141 -0.15381429 1.6650001
0.85690576 -0.15307523 1.6570001
0.85590953 -0.1523362 1.649
0.85488284 -0.15159714 1.641
0.86219144 -0.1523362 1.649
0.86113429 -0.15159714 1.641
0.86057335 -0.15095048 1.6340001
0.85945719 -0.15021142 1.626
0.85035336 -0.14808667 1.603
0.84968007 -0.14744002 1.5960001
0.85272002 -0.14744002 1.5960001
0.85200673 -0.14679334 1.5890001
0.85503334 -0.14679334 1.5890001
0.85880673 -0.15136668 1.6730001
0.85787141 -0.15064286 1.6650001
0.85690576 -0.14991905 1.6570001
0.86006194 -0.14991905 1.6570001
0.85905051 -0.14919524 1.649
0.86219144 -0.14919524 1.649
0.86113429 -0.14847143 1.641
0.86057335 -0.1478381 1.6340001
0.85522854 -0.14639048 1.618
0.85035336 -0.14503333 1.603
0.84968007 -0.14440002 1.5960001
0.85272002 -0.14440002 1.5960001
0.85200673 -0.14376669 1.5890001
0.85503334 -0.14376669 1.5890001
0.85880673 -0.14818001 1.6730001
0.85787141 -0.14747143 1.6650001
0.85690576 -0.14676286 1.6570001
0.86006194 -0.14676286 1.6570001
0.86321813 -0.14676286 1.6570001
0.86219144 -0.1460543 1.649
0.86533237 -0.1460543 1.649
0.86057335 -0.14472573 1.6340001
0.85522854 -0.14330857 1.618
0.85459715 -0.14268857 1.6110001
0.84968007 -0.14136 1.5960001
0.85272002 -0.14136 1.5960001
0.85200673 -0.14074001 1.5890001
0.85503334 -0.14074001 1.5890001
0.85971147 -0.14568667 1.6810001
0.85880673 -0.14499335 1.6730001
0.85787141 -0.14430001 1.6650001
0.86104286 -0.14430001 1.6650001
0.86006194 -0.14360666 1.6570001
0.86738575 -0.14430001 1.6650001
0.86637431 -0.14360666 1.6570001
0.8695305 -0.14360666 1.6570001
0.86057335 -0.14161333 1.6340001
0.85522854 -0.14022668 1.618
0.85459715 -0.13962001 1.6110001
0.85340667 -0.13892667 1.603
0.85646003 -0.13892667 1.603
0.85576004 -0.13832 1.5960001
0.85880005 -0.13832 1.5960001
0.85971147 -0.14248477 1.6810001
0.85880673 -0.14180666 1.6730001
0.85787141 -0.14112858 1.6650001
0.86104286 -0.14112858 1.6650001
0.8642143 -0.14112858 1.6650001
0.86738575 -0.14112858 1.6650001
0.86637431 -0.14045048 1.6570001
0.8695305 -0.14045048 1.6570001
0.85522854 -0.13714476 1.618
0.85459715 -0.13655142 1.6110001
0.85340667 -0.13587333 1.603
0.85646003 -0.13587333 1.603
0.85951334 -0.13587333 1.603
0.86256665 -0.13587333 1.603
0.86104286 -0.13795716 1.6650001
0.8642143 -0.13795716 1.6650001
0.85576004 -0.13224 1.5960001
0.85880005 -0.13224 1.5960001
0.85576004 -0.1292 1.5960001
0.85880005 -0.1292 1.5960001
