# .PCD v0.7 - Point Cloud Data file format
VERSION 0.7
FIELDS x y z
SIZE 4 4 4
TYPE F F F
COUNT 1 1 1
WIDTH 1475
HEIGHT 1
VIEWPOINT 0 0 0 1 0 0 0
POINTS 1475
DATA ascii
0.088170476 0.038959049 2.1530001
0.092271432 0.038959049 2.1530001
0.096372381 0.038959049 2.1530001
0.10047334 0.038959049 2.1530001
0.10457429 0.038959049 2.1530001
0.10801905 0.038723812 2.1400001
0.11209524 0.038723812 2.1400001
0.043340001 0.043340001 2.1670001
0.047467619 0.043340001 2.1670001
0.051595241 0.043340001 2.1670001
0.056082856 0.043619998 2.181
0.06059619 0.043880001 2.194
0.064391427 0.043619998 2.181
0.068954289 0.043880001 2.194
0.072700001 0.043619998 2.181
0.076854281 0.043619998 2.181
0.08048857 0.043340001 2.1670001
0.084069528 0.043060001 2.1530001
0.088170476 0.043060001 2.1530001
0.092271432 0.043060001 2.1530001
0.096372381 0.043060001 2.1530001
0.10047334 0.043060001 2.1530001
0.10457429 0.043060001 2.1530001
0.10801905 0.042800002 2.1400001
0.11209524 0.042800002 2.1400001
0.043340001 0.047467619 2.1670001
0.047467619 0.047467619 2.1670001
0.051928572 0.047774285 2.181
0.056082856 0.047774285 2.181
0.060237143 0.047774285 2.181
0.064391427 0.047774285 2.181
0.068954289 0.04805905 2.194
0.072700001 0.047774285 2.181
0.076854281 0.047774285 2.181
0.08048857 0.047467619 2.1670001
0.084616192 0.047467619 2.1670001
0.088170476 0.047160953 2.1530001
0.092271432 0.047160953 2.1530001
0.096372381 0.047160953 2.1530001
0.10047334 0.047160953 2.1530001
0.10457429 0.047160953 2.1530001
0.10801905 0.046876192 2.1400001
0.11209524 0.046876192 2.1400001
0.051928572 0.051928572 2.181
0.056082856 0.051928572 2.181
0.060237143 0.051928572 2.181
0.064391427 0.051928572 2.181
0.068954289 0.052238092 2.194
0.073133335 0.052238092 2.194
0.076854281 0.051928572 2.181
0.081008568 0.051928572 2.181
0.084616192 0.051595241 2.1670001
0.088743806 0.051595241 2.1670001
0.092871428 0.051595241 2.1670001
0.096372381 0.051261909 2.1530001
0.10047334 0.051261909 2.1530001
0.10457429 0.051261909 2.1530001
0.10867525 0.051261909 2.1530001
0.1127762 0.051261909 2.1530001
0.051928572 0.056082856 2.181
0.056082856 0.056082856 2.181
0.060237143 0.056082856 2.181
0.064391427 0.056082856 2.181
0.068954289 0.056417141 2.194
0.073133335 0.056417141 2.194
0.076854281 0.056082856 2.181
0.081008568 0.056082856 2.181
0.084616192 0.055722859 2.1670001
0.088743806 0.055722859 2.1670001
0.092871428 0.055722859 2.1670001
0.096372381 0.055362862 2.1530001
0.10047334 0.055362862 2.1530001
0.10457429 0.055362862 2.1530001
0.10801905 0.055028573 2.1400001
0.11209524 0.055028573 2.1400001
0.051928572 0.060237143 2.181
0.056082856 0.060237143 2.181
0.059850477 0.059850477 2.1670001
0.063978098 0.059850477 2.1670001
0.068954289 0.06059619 2.194
0.073133335 0.06059619 2.194
0.07731238 0.06059619 2.194
0.081491433 0.06059619 2.194
0.084616192 0.059850477 2.1670001
0.088743806 0.059850477 2.1670001
0.092871428 0.059850477 2.1670001
0.096372381 0.059463814 2.1530001
0.10047334 0.059463814 2.1530001
0.10457429 0.059463814 2.1530001
0.10867525 0.059463814 2.1530001
0.1127762 0.059463814 2.1530001
0.056082856 0.064391427 2.181
0.060237143 0.064391427 2.181
0.064391427 0.064391427 2.181
0.068954289 0.064775236 2.194
0.073133335 0.064775236 2.194
0.07731238 0.064775236 2.194
0.081491433 0.064775236 2.194
0.084616192 0.063978098 2.1670001
0.088743806 0.063978098 2.1670001
0.092871428 0.063978098 2.1670001
0.096372381 0.063564762 2.1530001
0.10047334 0.063564762 2.1530001
0.10457429 0.063564762 2.1530001
0.10801905 0.063180953 2.1400001
0.11209524 0.063180953 2.1400001
0.056082856 0.068545714 2.181
0.060237143 0.068545714 2.181
0.064391427 0.068545714 2.181
0.068954289 0.068954289 2.194
0.073133335 0.068954289 2.194
0.07731238 0.068954289 2.194
0.081491433 0.068954289 2.194
0.084616192 0.068105713 2.1670001
0.088743806 0.068105713 2.1670001
0.092871428 0.068105713 2.1670001
0.096372381 0.067665718 2.1530001
0.10047334 0.067665718 2.1530001
0.10457429 0.067665718 2.1530001
0.10801905 0.067257144 2.1400001
0.11209524 0.067257144 2.1400001
0.056082856 0.072700001 2.181
0.060237143 0.072700001 2.181
0.064775236 0.073133335 2.194
0.068954289 0.073133335 2.194
0.073133335 0.073133335 2.194
0.07731238 0.073133335 2.194
0.081491433 0.073133335 2.194
0.085162856 0.072700001 2.181
0.088743806 0.072233334 2.1670001
0.092871428 0.072233334 2.1670001
0.096999049 0.072233334 2.1670001
0.10047334 0.071766667 2.1530001
0.10457429 0.071766667 2.1530001
0.10801905 0.071333334 2.1400001
0.11209524 0.071333334 2.1400001
0.038253333 0.074493334 2.1140001
0.04228 0.074493334 2.1140001
0.064775236 0.07731238 2.194
0.068954289 0.07731238 2.194
0.073133335 0.07731238 2.194
0.07780572 0.07780572 2.2080002
0.081491433 0.07731238 2.194
0.085162856 0.076854281 2.181
0.089317136 0.076854281 2.181
0.092871428 0.076360956 2.1670001
0.096999049 0.076360956 2.1670001
0.10112667 0.076360956 2.1670001
0.10457429 0.075867623 2.1530001
0.10867525 0.075867623 2.1530001
0.1127762 0.075867623 2.1530001
0.11687715 0.075867623 2.1530001
0.030200001 0.078520007 2.1140001
0.034226667 0.078520007 2.1140001
0.038253333 0.078520007 2.1140001
0.04228 0.078520007 2.1140001
0.046306666 0.078520007 2.1140001
0.050333336 0.078520007 2.1140001
0.054694287 0.079002857 2.1270001
0.058745716 0.079002857 2.1270001
0.073133335 0.081491433 2.194
0.07731238 0.081491433 2.194
0.081491433 0.081491433 2.194
0.085162856 0.081008568 2.181
0.088743806 0.08048857 2.1670001
0.092871428 0.08048857 2.1670001
0.096999049 0.08048857 2.1670001
0.10047334 0.079968572 2.1530001
0.10457429 0.079968572 2.1530001
0.10867525 0.079968572 2.1530001
0.1127762 0.079968572 2.1530001
0.11687715 0.079968572 2.1530001
0.026173333 0.082546666 2.1140001
0.030200001 0.082546666 2.1140001
0.034226667 0.082546666 2.1140001
0.038253333 0.082546666 2.1140001
0.04228 0.082546666 2.1140001
0.046306666 0.082546666 2.1140001
0.050333336 0.082546666 2.1140001
0.054360002 0.082546666 2.1140001
0.058386669 0.082546666 2.1140001
0.062413335 0.082546666 2.1140001
0.066440001 0.082546666 2.1140001
0.076360956 0.084616192 2.1670001
0.08048857 0.084616192 2.1670001
0.084616192 0.084616192 2.1670001
0.088743806 0.084616192 2.1670001
0.092271432 0.084069528 2.1530001
0.096372381 0.084069528 2.1530001
0.10047334 0.084069528 2.1530001
0.10394286 0.083561912 2.1400001
0.10867525 0.084069528 2.1530001
0.1127762 0.084069528 2.1530001
0.11687715 0.084069528 2.1530001
-0.11805619 0.086040951 2.1010001
-0.11334857 0.085508578 2.0880001
-0.10937143 0.085508578 2.0880001
-0.10539429 0.085508578 2.0880001
-0.098046668 0.086040951 2.1010001
-0.09404476 0.086040951 2.1010001
-0.090042859 0.086040951 2.1010001
-0.085508578 0.085508578 2.0880001
-0.082039051 0.086040951 2.1010001
-0.078037143 0.086040951 2.1010001
0.014093334 0.086573333 2.1140001
0.01812 0.086573333 2.1140001
0.022146668 0.086573333 2.1140001
0.026173333 0.086573333 2.1140001
0.030200001 0.086573333 2.1140001
0.034226667 0.086573333 2.1140001
0.038253333 0.086573333 2.1140001
0.04228 0.086573333 2.1140001
0.046021905 0.086040951 2.1010001
0.050333336 0.086573333 2.1140001
0.054360002 0.086573333 2.1140001
0.058386669 0.086573333 2.1140001
0.062413335 0.086573333 2.1140001
0.066440001 0.086573333 2.1140001
0.076360956 0.088743806 2.1670001
0.08048857 0.088743806 2.1670001
0.084616192 0.088743806 2.1670001
0.088743806 0.088743806 2.1670001
0.092271432 0.088170476 2.1530001
0.096372381 0.088170476 2.1530001
0.10047334 0.088170476 2.1530001
0.10457429 0.088170476 2.1530001
0.10867525 0.088170476 2.1530001
0.1127762 0.088170476 2.1530001
0.11617143 0.087638095 2.1400001
-0.14606953 0.090042859 2.1010001
-0.14206763 0.090042859 2.1010001
-0.13806573 0.090042859 2.1010001
-0.13406381 0.090042859 2.1010001
-0.13006191 0.090042859 2.1010001
-0.12606001 0.090042859 2.1010001
-0.1220581 0.090042859 2.1010001
-0.11805619 0.090042859 2.1010001
-0.11334857 0.089485712 2.0880001
-0.10937143 0.089485712 2.0880001
-0.10539429 0.089485712 2.0880001
-0.10141715 0.089485712 2.0880001
-0.097440004 0.089485712 2.0880001
-0.09404476 0.090042859 2.1010001
-0.090042859 0.090042859 2.1010001
-0.085508578 0.089485712 2.0880001
-0.082039051 0.090042859 2.1010001
-0.077554286 0.089485712 2.0880001
0.0060771434 0.091157146 2.1270001
0.010128572 0.091157146 2.1270001
0.014093334 0.090600006 2.1140001
0.01812 0.090600006 2.1140001
0.022146668 0.090600006 2.1140001
0.026173333 0.090600006 2.1140001
0.030200001 0.090600006 2.1140001
0.034226667 0.090600006 2.1140001
0.038253333 0.090600006 2.1140001
0.042020001 0.090042859 2.1010001
0.046021905 0.090042859 2.1010001
0.050023809 0.090042859 2.1010001
0.054025713 0.090042859 2.1010001
0.058027618 0.090042859 2.1010001
0.062029526 0.090042859 2.1010001
0.068105713 0.092871428 2.1670001
0.072233334 0.092871428 2.1670001
0.076360956 0.092871428 2.1670001
0.08048857 0.092871428 2.1670001
0.084616192 0.092871428 2.1670001
0.088743806 0.092871428 2.1670001
0.092271432 0.092271432 2.1530001
0.096372381 0.092271432 2.1530001
0.10047334 0.092271432 2.1530001
0.10457429 0.092271432 2.1530001
0.10867525 0.092271432 2.1530001
0.11209524 0.091714285 2.1400001
0.11617143 0.091714285 2.1400001
-0.15807524 0.09404476 2.1010001
-0.15407334 0.09404476 2.1010001
-0.15007144 0.09404476 2.1010001
-0.14606953 0.09404476 2.1010001
-0.14206763 0.09404476 2.1010001
-0.13721143 0.093462855 2.0880001
-0.13323429 0.093462855 2.0880001
-0.12925714 0.093462855 2.0880001
-0.12528001 0.093462855 2.0880001
-0.12130286 0.093462855 2.0880001
-0.11732572 0.093462855 2.0880001
-0.11269715 0.09292572 2.0760002
-0.10937143 0.093462855 2.0880001
-0.10539429 0.093462855 2.0880001
-0.10204857 0.09404476 2.1010001
-0.097440004 0.093462855 2.0880001
-0.093462855 0.093462855 2.0880001
-0.089485712 0.093462855 2.0880001
-0.085508578 0.093462855 2.0880001
-0.081531428 0.093462855 2.0880001
-0.077554286 0.093462855 2.0880001
-0.073577143 0.093462855 2.0880001
-0.069600001 0.093462855 2.0880001
-0.065622859 0.093462855 2.0880001
-0.061645716 0.093462855 2.0880001
-0.057668574 0.093462855 2.0880001
-0.0020257144 0.09520857 2.1270001
0.0020257144 0.09520857 2.1270001
0.0060399999 0.094626665 2.1140001
0.010066668 0.094626665 2.1140001
0.014093334 0.094626665 2.1140001
0.01812 0.094626665 2.1140001
0.022146668 0.094626665 2.1140001
0.026173333 0.094626665 2.1140001
0.030200001 0.094626665 2.1140001
0.034226667 0.094626665 2.1140001
0.038253333 0.094626665 2.1140001
0.04228 0.094626665 2.1140001
0.046021905 0.09404476 2.1010001
0.050023809 0.09404476 2.1010001
0.054025713 0.09404476 2.1010001
0.058027618 0.09404476 2.1010001
0.062029526 0.09404476 2.1010001
0.068105713 0.096999049 2.1670001
0.072233334 0.096999049 2.1670001
0.076360956 0.096999049 2.1670001
0.08048857 0.096999049 2.1670001
0.084616192 0.096999049 2.1670001
0.088743806 0.096999049 2.1670001
0.092271432 0.096372381 2.1530001
0.096999049 0.096999049 2.1670001
0.10047334 0.096372381 2.1530001
0.10457429 0.096372381 2.1530001
0.10867525 0.096372381 2.1530001
0.11209524 0.095790476 2.1400001
0.11617143 0.095790476 2.1400001
-0.16207714 0.098046668 2.1010001
-0.15807524 0.098046668 2.1010001
-0.15407334 0.098046668 2.1010001
-0.15007144 0.098046668 2.1010001
-0.14606953 0.098046668 2.1010001
-0.14206763 0.098046668 2.1010001
-0.13721143 0.097440004 2.0880001
-0.13323429 0.097440004 2.0880001
-0.12925714 0.097440004 2.0880001
-0.12528001 0.097440004 2.0880001
-0.12130286 0.097440004 2.0880001
-0.11732572 0.097440004 2.0880001
-0.11334857 0.097440004 2.0880001
-0.10937143 0.097440004 2.0880001
-0.10539429 0.097440004 2.0880001
-0.10141715 0.097440004 2.0880001
-0.097440004 0.097440004 2.0880001
-0.093462855 0.097440004 2.0880001
-0.089485712 0.097440004 2.0880001
-0.085508578 0.097440004 2.0880001
-0.081531428 0.097440004 2.0880001
-0.077554286 0.097440004 2.0880001
-0.073577143 0.097440004 2.0880001
-0.069600001 0.097440004 2.0880001
-0.065622859 0.097440004 2.0880001
-0.061645716 0.097440004 2.0880001
-0.057668574 0.097440004 2.0880001
-0.053691432 0.097440004 2.0880001
-0.049714286 0.097440004 2.0880001
-0.045737144 0.097440004 2.0880001
-0.010066668 0.098653339 2.1140001
-0.0060399999 0.098653339 2.1140001
-0.0020133334 0.098653339 2.1140001
0.0020133334 0.098653339 2.1140001
0.0060399999 0.098653339 2.1140001
0.010066668 0.098653339 2.1140001
0.014093334 0.098653339 2.1140001
0.01812 0.098653339 2.1140001
0.022146668 0.098653339 2.1140001
0.026173333 0.098653339 2.1140001
0.030200001 0.098653339 2.1140001
0.034226667 0.098653339 2.1140001
0.038253333 0.098653339 2.1140001
0.04228 0.098653339 2.1140001
0.046021905 0.098046668 2.1010001
0.050023809 0.098046668 2.1010001
0.054025713 0.098046668 2.1010001
0.058027618 0.098046668 2.1010001
0.062413335 0.098653339 2.1140001
0.067257144 0.099866673 2.1400001
0.071766667 0.10047334 2.1530001
0.075867623 0.10047334 2.1530001
0.08048857 0.10112667 2.1670001
0.084616192 0.10112667 2.1670001
0.088743806 0.10112667 2.1670001
0.092271432 0.10047334 2.1530001
0.096999049 0.10112667 2.1670001
0.10047334 0.10047334 2.1530001
0.10457429 0.10047334 2.1530001
0.10867525 0.10047334 2.1530001
0.11209524 0.099866673 2.1400001
0.11617143 0.099866673 2.1400001
-0.16207714 0.10204857 2.1010001
-0.15905334 0.10268001 2.1140001
-0.15407334 0.10204857 2.1010001
-0.15007144 0.10204857 2.1010001
-0.14606953 0.10204857 2.1010001
-0.14206763 0.10204857 2.1010001
-0.13806573 0.10204857 2.1010001
-0.13323429 0.10141715 2.0880001
-0.12925714 0.10141715 2.0880001
-0.12528001 0.10141715 2.0880001
-0.12130286 0.10141715 2.0880001
-0.11732572 0.10141715 2.0880001
-0.11334857 0.10141715 2.0880001
-0.10937143 0.10141715 2.0880001
-0.10539429 0.10141715 2.0880001
-0.10141715 0.10141715 2.0880001
-0.097440004 0.10141715 2.0880001
-0.093462855 0.10141715 2.0880001
-0.089485712 0.10141715 2.0880001
-0.085508578 0.10141715 2.0880001
-0.081531428 0.10141715 2.0880001
-0.077108577 0.10083429 2.0760002
-0.073154293 0.10083429 2.0760002
-0.069200002 0.10083429 2.0760002
-0.065622859 0.10141715 2.0880001
-0.06129143 0.10083429 2.0760002
-0.05733715 0.10083429 2.0760002
-0.053382862 0.10083429 2.0760002
-0.049428575 0.10083429 2.0760002
-0.045737144 0.10141715 2.0880001
-0.041759998 0.10141715 2.0880001
-0.037565719 0.10083429 2.0760002
-0.033805717 0.10141715 2.0880001
-0.029828573 0.10141715 2.0880001
-0.025851429 0.10141715 2.0880001
-0.021874286 0.10141715 2.0880001
-0.018008571 0.10204857 2.1010001
-0.014006667 0.10204857 2.1010001
-0.010004762 0.10204857 2.1010001
-0.0060399999 0.10268001 2.1140001
-0.0020133334 0.10268001 2.1140001
0.0020133334 0.10268001 2.1140001
0.0060399999 0.10268001 2.1140001
0.010066668 0.10268001 2.1140001
0.014093334 0.10268001 2.1140001
0.01812 0.10268001 2.1140001
0.022010475 0.10204857 2.1010001
0.026012382 0.10204857 2.1010001
0.030014286 0.10204857 2.1010001
0.034016192 0.10204857 2.1010001
0.038018096 0.10204857 2.1010001
0.042020001 0.10204857 2.1010001
0.046021905 0.10204857 2.1010001
0.050023809 0.10204857 2.1010001
0.054360002 0.10268001 2.1140001
0.058386669 0.10268001 2.1140001
0.062413335 0.10268001 2.1140001
0.066848576 0.10331143 2.1270001
0.071766667 0.10457429 2.1530001
0.076360956 0.10525429 2.1670001
0.08048857 0.10525429 2.1670001
0.084616192 0.10525429 2.1670001
0.088743806 0.10525429 2.1670001
0.092871428 0.10525429 2.1670001
0.096999049 0.10525429 2.1670001
0.10047334 0.10457429 2.1530001
0.10457429 0.10457429 2.1530001
0.10867525 0.10457429 2.1530001
0.1127762 0.10457429 2.1530001
0.11687715 0.10457429 2.1530001
-0.16308001 0.10670667 2.1140001
-0.15905334 0.10670667 2.1140001
-0.15502666 0.10670667 2.1140001
-0.15007144 0.10605048 2.1010001
-0.14606953 0.10605048 2.1010001
-0.14206763 0.10605048 2.1010001
-0.13806573 0.10605048 2.1010001
-0.13323429 0.10539429 2.0880001
-0.12925714 0.10539429 2.0880001
-0.12528001 0.10539429 2.0880001
-0.12130286 0.10539429 2.0880001
-0.11732572 0.10539429 2.0880001
-0.11334857 0.10539429 2.0880001
-0.10937143 0.10539429 2.0880001
-0.10539429 0.10539429 2.0880001
-0.10141715 0.10539429 2.0880001
-0.097440004 0.10539429 2.0880001
-0.093462855 0.10539429 2.0880001
-0.089485712 0.10539429 2.0880001
-0.085017145 0.10478859 2.0760002
-0.081062868 0.10478859 2.0760002
-0.077108577 0.10478859 2.0760002
-0.073154293 0.10478859 2.0760002
-0.069200002 0.10478859 2.0760002
-0.065622859 0.10539429 2.0880001
-0.06129143 0.10478859 2.0760002
-0.05733715 0.10478859 2.0760002
-0.053382862 0.10478859 2.0760002
-0.049428575 0.10478859 2.0760002
-0.045474291 0.10478859 2.0760002
-0.041520003 0.10478859 2.0760002
-0.037565719 0.10478859 2.0760002
-0.033805717 0.10539429 2.0880001
-0.029657146 0.10478859 2.0760002
-0.02570286 0.10478859 2.0760002
-0.021874286 0.10539429 2.0880001
-0.017897142 0.10539429 2.0880001
-0.01392 0.10539429 2.0880001
-0.010004762 0.10605048 2.1010001
-0.0060028573 0.10605048 2.1010001
-0.0020133334 0.10670667 2.1140001
0.0020133334 0.10670667 2.1140001
0.0060399999 0.10670667 2.1140001
0.010066668 0.10670667 2.1140001
0.014006667 0.10605048 2.1010001
0.018008571 0.10605048 2.1010001
0.022010475 0.10605048 2.1010001
0.026012382 0.10605048 2.1010001
0.030014286 0.10605048 2.1010001
0.034016192 0.10605048 2.1010001
0.038018096 0.10605048 2.1010001
0.042020001 0.10605048 2.1010001
0.046021905 0.10605048 2.1010001
0.050023809 0.10605048 2.1010001
0.054025713 0.10605048 2.1010001
0.058386669 0.10670667 2.1140001
0.062413335 0.10670667 2.1140001
0.066848576 0.10736286 2.1270001
0.071766667 0.10867525 2.1530001
0.075867623 0.10867525 2.1530001
0.08048857 0.10938191 2.1670001
0.084616192 0.10938191 2.1670001
0.088743806 0.10938191 2.1670001
0.092871428 0.10938191 2.1670001
0.096999049 0.10938191 2.1670001
0.10112667 0.10938191 2.1670001
0.10525429 0.10938191 2.1670001
0.10867525 0.10867525 2.1530001
0.1127762 0.10867525 2.1530001
0.11687715 0.10867525 2.1530001
-0.16710667 0.11073334 2.1140001
-0.16308001 0.11073334 2.1140001
-0.15905334 0.11073334 2.1140001
-0.15502666 0.11073334 2.1140001
-0.15007144 0.11005238 2.1010001
-0.14606953 0.11005238 2.1010001
-0.14206763 0.11005238 2.1010001
-0.13806573 0.11005238 2.1010001
-0.13323429 0.10937143 2.0880001
-0.12925714 0.10937143 2.0880001
-0.12528001 0.10937143 2.0880001
-0.12130286 0.10937143 2.0880001
-0.11665144 0.10874286 2.0760002
-0.11269715 0.10874286 2.0760002
-0.10937143 0.10937143 2.0880001
-0.10539429 0.10937143 2.0880001
-0.10083429 0.10874286 2.0760002
-0.096880011 0.10874286 2.0760002
-0.09292572 0.10874286 2.0760002
-0.088971443 0.10874286 2.0760002
-0.085017145 0.10874286 2.0760002
-0.081062868 0.10874286 2.0760002
-0.07662572 0.10806192 2.0630002
-0.073154293 0.10874286 2.0760002
-0.069200002 0.10874286 2.0760002
-0.065245725 0.10874286 2.0760002
-0.06129143 0.10874286 2.0760002
-0.05733715 0.10874286 2.0760002
-0.053382862 0.10874286 2.0760002
-0.049428575 0.10874286 2.0760002
-0.045474291 0.10874286 2.0760002
-0.041520003 0.10874286 2.0760002
-0.037330478 0.10806192 2.0630002
-0.033611432 0.10874286 2.0760002
-0.029657146 0.10874286 2.0760002
-0.02570286 0.10874286 2.0760002
-0.021748573 0.10874286 2.0760002
-0.017794287 0.10874286 2.0760002
-0.01392 0.10937143 2.0880001
-0.0099428575 0.10937143 2.0880001
-0.0060028573 0.11005238 2.1010001
-0.0020009524 0.11005238 2.1010001
0.0020009524 0.11005238 2.1010001
0.0060028573 0.11005238 2.1010001
0.010004762 0.11005238 2.1010001
0.014006667 0.11005238 2.1010001
0.018008571 0.11005238 2.1010001
0.022010475 0.11005238 2.1010001
0.026012382 0.11005238 2.1010001
0.030014286 0.11005238 2.1010001
0.034016192 0.11005238 2.1010001
0.037782859 0.10937143 2.0880001
0.042020001 0.11005238 2.1010001
0.046021905 0.11005238 2.1010001
0.050023809 0.11005238 2.1010001
0.054025713 0.11005238 2.1010001
0.058027618 0.11005238 2.1010001
0.062797144 0.11141429 2.1270001
0.067257144 0.11209524 2.1400001
0.071766667 0.1127762 2.1530001
0.075867623 0.1127762 2.1530001
0.08048857 0.11350953 2.1670001
0.084616192 0.11350953 2.1670001
0.088743806 0.11350953 2.1670001
0.092871428 0.11350953 2.1670001
0.096999049 0.11350953 2.1670001
0.10112667 0.11350953 2.1670001
0.10525429 0.11350953 2.1670001
0.10938191 0.11350953 2.1670001
0.1127762 0.1127762 2.1530001
0.11687715 0.1127762 2.1530001
-0.16710667 0.11476 2.1140001
-0.16308001 0.11476 2.1140001
-0.15905334 0.11476 2.1140001
-0.15502666 0.11476 2.1140001
-0.15007144 0.11405428 2.1010001
-0.14606953 0.11405428 2.1010001
-0.14206763 0.11405428 2.1010001
-0.13806573 0.11405428 2.1010001
-0.13323429 0.11334857 2.0880001
-0.12925714 0.11334857 2.0880001
-0.12528001 0.11334857 2.0880001
-0.12060573 0.11269715 2.0760002
-0.11665144 0.11269715 2.0760002
-0.11269715 0.11269715 2.0760002
-0.10874286 0.11269715 2.0760002
-0.10478859 0.11269715 2.0760002
-0.10083429 0.11269715 2.0760002
-0.096880011 0.11269715 2.0760002
-0.09292572 0.11269715 2.0760002
-0.088971443 0.11269715 2.0760002
-0.085017145 0.11269715 2.0760002
-0.080555245 0.11199144 2.0630002
-0.07662572 0.11199144 2.0630002
-0.072696202 0.11199144 2.0630002
-0.069200002 0.11269715 2.0760002
-0.065245725 0.11269715 2.0760002
-0.06129143 0.11269715 2.0760002
-0.05733715 0.11269715 2.0760002
-0.053382862 0.11269715 2.0760002
-0.049428575 0.11269715 2.0760002
-0.045474291 0.11269715 2.0760002
-0.041520003 0.11269715 2.0760002
-0.037330478 0.11199144 2.0630002
-0.033805717 0.11334857 2.0880001
-0.029657146 0.11269715 2.0760002
-0.02570286 0.11269715 2.0760002
-0.021748573 0.11269715 2.0760002
-0.017794287 0.11269715 2.0760002
-0.013753335 0.11199144 2.0630002
-0.0098238103 0.11199144 2.0630002
-0.0059314291 0.11269715 2.0760002
-0.0019885714 0.11334857 2.0880001
0.0020009524 0.11405428 2.1010001
0.0060028573 0.11405428 2.1010001
0.010004762 0.11405428 2.1010001
0.014006667 0.11405428 2.1010001
0.018008571 0.11405428 2.1010001
0.022010475 0.11405428 2.1010001
0.025851429 0.11334857 2.0880001
0.029828573 0.11334857 2.0880001
0.033805717 0.11334857 2.0880001
0.037782859 0.11334857 2.0880001
0.041759998 0.11334857 2.0880001
0.045737144 0.11334857 2.0880001
0.049714286 0.11334857 2.0880001
0.054025713 0.11405428 2.1010001
0.058027618 0.11405428 2.1010001
0.062797144 0.11546572 2.1270001
0.067257144 0.11617143 2.1400001
0.071766667 0.11687715 2.1530001
0.075867623 0.11687715 2.1530001
0.08048857 0.11763714 2.1670001
0.084616192 0.11763714 2.1670001
0.088743806 0.11763714 2.1670001
0.092871428 0.11763714 2.1670001
0.096999049 0.11763714 2.1670001
0.10112667 0.11763714 2.1670001
0.10525429 0.11763714 2.1670001
0.10867525 0.11687715 2.1530001
0.1127762 0.11687715 2.1530001
0.11687715 0.11687715 2.1530001
-0.16710667 0.11878667 2.1140001
-0.16308001 0.11878667 2.1140001
-0.15905334 0.11878667 2.1140001
-0.15502666 0.11878667 2.1140001
-0.15007144 0.11805619 2.1010001
-0.14606953 0.11805619 2.1010001
-0.14206763 0.11805619 2.1010001
-0.13806573 0.11805619 2.1010001
-0.13323429 0.11732572 2.0880001
-0.12925714 0.11732572 2.0880001
-0.12456001 0.11665144 2.0760002
-0.12060573 0.11665144 2.0760002
-0.11592096 0.11592096 2.0630002
-0.11199144 0.11592096 2.0630002
-0.10806192 0.11592096 2.0630002
-0.10478859 0.11665144 2.0760002
-0.10020287 0.11592096 2.0630002
-0.096273348 0.11592096 2.0630002
-0.092343815 0.11592096 2.0630002
-0.088414289 0.11592096 2.0630002
-0.084484771 0.11592096 2.0630002
-0.080555245 0.11592096 2.0630002
-0.07662572 0.11592096 2.0630002
-0.072273336 0.11524668 2.0510001
-0.068766676 0.11592096 2.0630002
-0.06483715 0.11592096 2.0630002
-0.060907625 0.11592096 2.0630002
-0.056978103 0.11592096 2.0630002
-0.053048573 0.11592096 2.0630002
-0.049119052 0.11592096 2.0630002
-0.04518953 0.11592096 2.0630002
-0.041260004 0.11592096 2.0630002
-0.037330478 0.11592096 2.0630002
-0.033611432 0.11665144 2.0760002
-0.029657146 0.11665144 2.0760002
-0.02570286 0.11665144 2.0760002
-0.021748573 0.11665144 2.0760002
-0.017794287 0.11665144 2.0760002
-0.013840001 0.11665144 2.0760002
-0.0098238103 0.11592096 2.0630002
-0.0058942861 0.11592096 2.0630002
-0.0019885714 0.11732572 2.0880001
0.0019885714 0.11732572 2.0880001
0.0059657143 0.11732572 2.0880001
0.0099428575 0.11732572 2.0880001
0.01392 0.11732572 2.0880001
0.017897142 0.11732572 2.0880001
0.021874286 0.11732572 2.0880001
0.025851429 0.11732572 2.0880001
0.029657146 0.11665144 2.0760002
0.033611432 0.11665144 2.0760002
0.037565719 0.11665144 2.0760002
0.041759998 0.11732572 2.0880001
0.045737144 0.11732572 2.0880001
0.049714286 0.11732572 2.0880001
0.054025713 0.11805619 2.1010001
0.058027618 0.11805619 2.1010001
0.062413335 0.11878667 2.1140001
0.066848576 0.11951715 2.1270001
0.071766667 0.1209781 2.1530001
0.075867623 0.1209781 2.1530001
0.08048857 0.12176476 2.1670001
0.084616192 0.12176476 2.1670001
0.088743806 0.12176476 2.1670001
0.092871428 0.12176476 2.1670001
0.096999049 0.12176476 2.1670001
0.10112667 0.12176476 2.1670001
0.10457429 0.1209781 2.1530001
0.10867525 0.1209781 2.1530001
0.1127762 0.1209781 2.1530001
0.11687715 0.1209781 2.1530001
0.1209781 0.1209781 2.1530001
0.12507905 0.1209781 2.1530001
-0.16308001 0.12281334 2.1140001
-0.16003144 0.12356858 2.1270001
-0.15502666 0.12281334 2.1140001
-0.15007144 0.1220581 2.1010001
-0.14606953 0.1220581 2.1010001
-0.14206763 0.1220581 2.1010001
-0.13721143 0.12130286 2.0880001
-0.13323429 0.12130286 2.0880001
-0.1285143 0.12060573 2.0760002
-0.12456001 0.12060573 2.0760002
-0.11985049 0.11985049 2.0630002
-0.11592096 0.11985049 2.0630002
-0.11199144 0.11985049 2.0630002
-0.10806192 0.11985049 2.0630002
-0.10413239 0.11985049 2.0630002
-0.10020287 0.11985049 2.0630002
-0.096273348 0.11985049 2.0630002
-0.091806665 0.11915334 2.0510001
-0.087900005 0.11915334 2.0510001
-0.083993338 0.11915334 2.0510001
-0.080086671 0.11915334 2.0510001
-0.076180004 0.11915334 2.0510001
-0.072273336 0.11915334 2.0510001
-0.068766676 0.11985049 2.0630002
-0.06483715 0.11985049 2.0630002
-0.060907625 0.11985049 2.0630002
-0.056646671 0.11915334 2.0510001
-0.05274 0.11915334 2.0510001
-0.049119052 0.11985049 2.0630002
-0.044926669 0.11915334 2.0510001
-0.041020002 0.11915334 2.0510001
-0.037113335 0.11915334 2.0510001
-0.033611432 0.12060573 2.0760002
-0.029471431 0.11985049 2.0630002
-0.025541907 0.11985049 2.0630002
-0.021612383 0.11985049 2.0630002
-0.017682858 0.11985049 2.0630002
-0.013753335 0.11985049 2.0630002
-0.0098238103 0.11985049 2.0630002
-0.0058942861 0.11985049 2.0630002
-0.0019647621 0.11985049 2.0630002
0.0019771431 0.12060573 2.0760002
0.0059314291 0.12060573 2.0760002
0.0098857153 0.12060573 2.0760002
0.013673333 0.11915334 2.0510001
0.017580001 0.11915334 2.0510001
0.021612383 0.11985049 2.0630002
0.025541907 0.11985049 2.0630002
0.029471431 0.11985049 2.0630002
0.033400957 0.11985049 2.0630002
0.037330478 0.11985049 2.0630002
0.041520003 0.12060573 2.0760002
0.045474291 0.12060573 2.0760002
0.049714286 0.12130286 2.0880001
0.053691432 0.12130286 2.0880001
0.057668574 0.12130286 2.0880001
0.062413335 0.12281334 2.1140001
0.066848576 0.12356858 2.1270001
0.070900001 0.12356858 2.1270001
0.075867623 0.12507905 2.1530001
0.079968572 0.12507905 2.1530001
0.084616192 0.12589237 2.1670001
0.088743806 0.12589237 2.1670001
0.093471423 0.12670571 2.181
0.09762571 0.12670571 2.181
0.10112667 0.12589237 2.1670001
0.10525429 0.12589237 2.1670001
0.10938191 0.12589237 2.1670001
0.11350953 0.12589237 2.1670001
0.11763714 0.12589237 2.1670001
0.12176476 0.12589237 2.1670001
-0.16003144 0.12762001 2.1270001
-0.15598001 0.12762001 2.1270001
-0.15007144 0.12606001 2.1010001
-0.14606953 0.12606001 2.1010001
-0.14118858 0.12528001 2.0880001
-0.13721143 0.12528001 2.0880001
-0.13323429 0.12528001 2.0880001
-0.1285143 0.12456001 2.0760002
-0.12456001 0.12456001 2.0760002
-0.12060573 0.12456001 2.0760002
-0.11592096 0.12378 2.0630002
-0.11199144 0.12378 2.0630002
-0.10874286 0.12456001 2.0760002
-0.10413239 0.12378 2.0630002
-0.10020287 0.12378 2.0630002
-0.09571334 0.12306001 2.0510001
-0.091806665 0.12306001 2.0510001
-0.087900005 0.12306001 2.0510001
-0.083993338 0.12306001 2.0510001
-0.080086671 0.12306001 2.0510001
-0.076180004 0.12306001 2.0510001
-0.072273336 0.12306001 2.0510001
-0.068366669 0.12306001 2.0510001
-0.064460002 0.12306001 2.0510001
-0.060553338 0.12306001 2.0510001
-0.056646671 0.12306001 2.0510001
-0.05274 0.12306001 2.0510001
-0.048833333 0.12306001 2.0510001
-0.044926669 0.12306001 2.0510001
-0.041020002 0.12306001 2.0510001
-0.037113335 0.12306001 2.0510001
-0.033206668 0.12306001 2.0510001
-0.029471431 0.12378 2.0630002
-0.025541907 0.12378 2.0630002
-0.021612383 0.12378 2.0630002
-0.017682858 0.12378 2.0630002
-0.013753335 0.12378 2.0630002
-0.0098238103 0.12378 2.0630002
-0.0058600004 0.12306001 2.0510001
-0.0019533334 0.12306001 2.0510001
0.0019533334 0.12306001 2.0510001
0.0058600004 0.12306001 2.0510001
0.0097095231 0.12234 2.039
0.013593334 0.12234 2.039
0.017580001 0.12306001 2.0510001
0.021486668 0.12306001 2.0510001
0.025541907 0.12378 2.0630002
0.029471431 0.12378 2.0630002
0.033400957 0.12378 2.0630002
0.037330478 0.12378 2.0630002
0.041520003 0.12456001 2.0760002
0.045474291 0.12456001 2.0760002
0.049714286 0.12528001 2.0880001
0.053691432 0.12528001 2.0880001
0.057668574 0.12528001 2.0880001
0.062413335 0.12684001 2.1140001
0.067257144 0.12840001 2.1400001
0.071766667 0.12918 2.1530001
0.076360956 0.13001999 2.1670001
0.08048857 0.13001999 2.1670001
0.084616192 0.13001999 2.1670001
0.089317136 0.13086 2.181
0.093471423 0.13086 2.181
0.09762571 0.13086 2.181
0.10112667 0.13001999 2.1670001
0.10457429 0.12918 2.1530001
0.10867525 0.12918 2.1530001
0.1127762 0.12918 2.1530001
0.10113429 0.11178 1.863
0.10524477 0.11238001 1.8730001
0.10881238 0.11238001 1.8730001
-0.15598001 0.13167143 2.1270001
-0.15007144 0.13006191 2.1010001
-0.14606953 0.13006191 2.1010001
-0.14118858 0.12925714 2.0880001
-0.13721143 0.12925714 2.0880001
-0.13323429 0.12925714 2.0880001
-0.1285143 0.1285143 2.0760002
-0.12456001 0.1285143 2.0760002
-0.12060573 0.1285143 2.0760002
-0.11524668 0.12696667 2.0510001
-0.11134 0.12696667 2.0510001
-0.10806192 0.12770954 2.0630002
-0.10413239 0.12770954 2.0630002
-0.099620007 0.12696667 2.0510001
-0.095153332 0.12622382 2.039
-0.091269523 0.12622382 2.039
-0.087385722 0.12622382 2.039
-0.083501905 0.12622382 2.039
-0.079618096 0.12622382 2.039
-0.075734288 0.12622382 2.039
-0.071850479 0.12622382 2.039
-0.067966662 0.12622382 2.039
-0.064082861 0.12622382 2.039
-0.060199048 0.12622382 2.039
-0.05631524 0.12622382 2.039
-0.052431431 0.12622382 2.039
-0.048833333 0.12696667 2.0510001
-0.044926669 0.12696667 2.0510001
-0.041020002 0.12696667 2.0510001
-0.037113335 0.12696667 2.0510001
-0.033400957 0.12770954 2.0630002
-0.029471431 0.12770954 2.0630002
-0.025541907 0.12770954 2.0630002
-0.021612383 0.12770954 2.0630002
-0.017580001 0.12696667 2.0510001
-0.013673333 0.12696667 2.0510001
-0.0097666671 0.12696667 2.0510001
-0.0058257142 0.12622382 2.039
-0.0019419048 0.12622382 2.039
0.0019419048 0.12622382 2.039
0.0058257142 0.12622382 2.039
0.0096523818 0.12548095 2.0270002
0.013513334 0.12548095 2.0270002
0.017477142 0.12622382 2.039
0.021360952 0.12622382 2.039
0.025393335 0.12696667 2.0510001
0.029300001 0.12696667 2.0510001
0.033400957 0.12770954 2.0630002
0.037330478 0.12770954 2.0630002
0.041260004 0.12770954 2.0630002
0.045474291 0.1285143 2.0760002
0.049714286 0.12925714 2.0880001
0.053691432 0.12925714 2.0880001
0.057668574 0.12925714 2.0880001
0.062797144 0.13167143 2.1270001
0.067257144 0.1324762 2.1400001
0.071766667 0.13328096 2.1530001
0.076360956 0.13414763 2.1670001
0.08048857 0.13414763 2.1670001
0.084616192 0.13414763 2.1670001
0.089317136 0.13501428 2.181
0.093471423 0.13501428 2.181
0.09762571 0.13501428 2.181
0.10112667 0.13414763 2.1670001
0.10457429 0.13328096 2.1530001
0.10801905 0.1324762 2.1400001
0.097585715 0.11532857 1.863
0.10113429 0.11532857 1.863
0.10524477 0.11594763 1.8730001
0.10881238 0.11594763 1.8730001
0.11298 0.11656668 1.8830001
0.13866381 0.11409048 1.8430001
0.14217429 0.11409048 1.8430001
-0.15007144 0.13406381 2.1010001
-0.14606953 0.13406381 2.1010001
-0.13721143 0.13323429 2.0880001
-0.13323429 0.13323429 2.0880001
-0.1285143 0.13246858 2.0760002
-0.12456001 0.13246858 2.0760002
-0.12060573 0.13246858 2.0760002
-0.11524668 0.13087334 2.0510001
-0.11134 0.13087334 2.0510001
-0.10743334 0.13087334 2.0510001
-0.10352667 0.13087334 2.0510001
-0.099620007 0.13087334 2.0510001
-0.095153332 0.13010763 2.039
-0.091269523 0.13010763 2.039
-0.087385722 0.13010763 2.039
-0.083501905 0.13010763 2.039
-0.079618096 0.13010763 2.039
-0.075734288 0.13010763 2.039
-0.071850479 0.13010763 2.039
-0.067966662 0.13010763 2.039
-0.064082861 0.13010763 2.039
-0.060199048 0.13010763 2.039
-0.05631524 0.13010763 2.039
-0.052431431 0.13010763 2.039
-0.048547622 0.13010763 2.039
-0.044926669 0.13087334 2.0510001
-0.04078 0.13010763 2.039
-0.037113335 0.13087334 2.0510001
-0.033206668 0.13087334 2.0510001
-0.029300001 0.13087334 2.0510001
-0.025393335 0.13087334 2.0510001
-0.021486668 0.13087334 2.0510001
-0.017580001 0.13087334 2.0510001
-0.013673333 0.13087334 2.0510001
-0.0097666671 0.13087334 2.0510001
-0.0058257142 0.13010763 2.039
-0.0019419048 0.13010763 2.039
0.0019304764 0.12934192 2.0270002
0.005791429 0.12934192 2.0270002
0.0095952386 0.12857619 2.0150001
0.013433333 0.12857619 2.0150001
0.017271429 0.12857619 2.0150001
0.021109525 0.12857619 2.0150001
0.025096191 0.12934192 2.0270002
0.029128572 0.13010763 2.039
0.033012383 0.13010763 2.039
0.037113335 0.13087334 2.0510001
0.041260004 0.13163905 2.0630002
0.045474291 0.13246858 2.0760002
0.050023809 0.13406381 2.1010001
0.054025713 0.13406381 2.1010001
0.058027618 0.13406381 2.1010001
0.062797144 0.13572286 2.1270001
0.067257144 0.13655238 2.1400001
0.071766667 0.13738191 2.1530001
0.076360956 0.13827525 2.1670001
0.081008568 0.13916858 2.181
0.084616192 0.13827525 2.1670001
0.089317136 0.13916858 2.181
0.093471423 0.13916858 2.181
0.09762571 0.13916858 2.181
0.085540004 0.11696286 1.8330001
0.090488568 0.11887714 1.863
0.094037138 0.11887714 1.863
0.097585715 0.11887714 1.863
0.10167715 0.11951525 1.8730001
0.10524477 0.11951525 1.8730001
0.10881238 0.11951525 1.8730001
0.11238001 0.11951525 1.8730001
0.11594763 0.11951525 1.8730001
0.11823905 0.11823905 1.853
0.12176857 0.11823905 1.853
0.1252981 0.11823905 1.853
0.12813239 0.11760096 1.8430001
0.13164286 0.11760096 1.8430001
0.13515334 0.11760096 1.8430001
0.13866381 0.11760096 1.8430001
0.14217429 0.11760096 1.8430001
0.14647524 0.11823905 1.853
0.14919524 0.11760096 1.8430001
-0.11134 0.13478 2.0510001
-0.10743334 0.13478 2.0510001
-0.10352667 0.13478 2.0510001
-0.099620007 0.13478 2.0510001
-0.095153332 0.13399144 2.039
-0.091269523 0.13399144 2.039
-0.087385722 0.13399144 2.039
-0.083501905 0.13399144 2.039
-0.079149529 0.13320287 2.0270002
-0.075288579 0.13320287 2.0270002
-0.071427628 0.13320287 2.0270002
-0.06756667 0.13320287 2.0270002
-0.06370572 0.13320287 2.0270002
-0.060199048 0.13399144 2.039
-0.05631524 0.13399144 2.039
-0.052431431 0.13399144 2.039
-0.048547622 0.13399144 2.039
-0.044663809 0.13399144 2.039
-0.04078 0.13399144 2.039
-0.036896192 0.13399144 2.039
-0.033206668 0.13478 2.0510001
-0.029300001 0.13478 2.0510001
-0.025393335 0.13478 2.0510001
-0.021486668 0.13478 2.0510001
-0.017580001 0.13478 2.0510001
-0.013673333 0.13478 2.0510001
-0.0097095231 0.13399144 2.039
-0.005791429 0.13320287 2.0270002
-0.0019304764 0.13320287 2.0270002
0.0019190477 0.13241428 2.0150001
0.0057571428 0.13241428 2.0150001
0.0095952386 0.13241428 2.0150001
0.013353333 0.13162571 2.003
0.017168572 0.13162571 2.003
0.02098381 0.13162571 2.003
0.024799047 0.13162571 2.003
0.028614286 0.13162571 2.003
0.032057147 0.13011429 1.9800001
0.035629526 0.12939143 1.9690001
0.041020002 0.13478 2.0510001
0.044926669 0.13478 2.0510001
0.049714286 0.13721143 2.0880001
0.054025713 0.13806573 2.1010001
0.058027618 0.13806573 2.1010001
0.062413335 0.13892001 2.1140001
0.066848576 0.13977428 2.1270001
0.070900001 0.13977428 2.1270001
0.076854281 0.14332286 2.181
0.081008568 0.14332286 2.181
0.085162856 0.14332286 2.181
0.089317136 0.14332286 2.181
0.078985721 0.12111144 1.8430001
0.082048573 0.12045429 1.8330001
0.085540004 0.12045429 1.8330001
0.090488568 0.12242571 1.863
0.094037138 0.12242571 1.863
0.098109528 0.12308287 1.8730001
0.10167715 0.12308287 1.8730001
0.10468286 0.12242571 1.863
0.10881238 0.12308287 1.8730001
0.11238001 0.12308287 1.8730001
0.11470952 0.12176857 1.853
0.11823905 0.12176857 1.853
0.12176857 0.12176857 1.853
0.1252981 0.12176857 1.853
0.12813239 0.12111144 1.8430001
0.13164286 0.12111144 1.8430001
0.13515334 0.12111144 1.8430001
0.13866381 0.12111144 1.8430001
0.14217429 0.12111144 1.8430001
0.14568476 0.12111144 1.8430001
0.14838572 0.12045429 1.8330001
0.15187715 0.12045429 1.8330001
-0.10743334 0.13868667 2.0510001
-0.10352667 0.13868667 2.0510001
-0.099037141 0.13787523 2.039
-0.095153332 0.13787523 2.039
-0.090732388 0.13706382 2.0270002
-0.087385722 0.13787523 2.039
-0.083010487 0.13706382 2.0270002
-0.079149529 0.13706382 2.0270002
-0.075288579 0.13706382 2.0270002
-0.071004763 0.13625239 2.0150001
-0.067166664 0.13625239 2.0150001
-0.06370572 0.13706382 2.0270002
-0.059844766 0.13706382 2.0270002
-0.055983812 0.13706382 2.0270002
-0.052122861 0.13706382 2.0270002
-0.048547622 0.13787523 2.039
-0.044663809 0.13787523 2.039
-0.04078 0.13787523 2.039
-0.036896192 0.13787523 2.039
-0.033206668 0.13868667 2.0510001
-0.029300001 0.13868667 2.0510001
-0.025393335 0.13868667 2.0510001
-0.021360952 0.13787523 2.039
-0.017477142 0.13787523 2.039
-0.013593334 0.13787523 2.039
-0.0096523818 0.13706382 2.0270002
-0.0057571428 0.13625239 2.0150001
-0.0019190477 0.13625239 2.0150001
0.0019190477 0.13625239 2.0150001
0.0057228571 0.13544095 2.003
0.0095380954 0.13544095 2.003
0.013353333 0.13544095 2.003
0.017074287 0.13469715 1.9920001
0.020868571 0.13469715 1.9920001
0.024514288 0.13388573 1.9800001
0.028285716 0.13388573 1.9800001
0.031879049 0.13314192 1.9690001
0.035629526 0.13314192 1.9690001
0.039380003 0.13314192 1.9690001
0.042648572 0.13165429 1.9470001
0.050023809 0.14206763 2.1010001
0.054025713 0.14206763 2.1010001
0.058386669 0.14294668 2.1140001
0.062413335 0.14294668 2.1140001
0.066848576 0.14382572 2.1270001
0.070900001 0.14382572 2.1270001
0.076360956 0.14653048 2.1670001
0.08048857 0.14653048 2.1670001
0.084616192 0.14653048 2.1670001
0.074697152 0.12333716 1.8240001
0.078557141 0.12394572 1.8330001
0.082048573 0.12394572 1.8330001
0.086006664 0.1246219 1.8430001
0.090002865 0.1252981 1.853
0.094037138 0.12597428 1.863
0.098109528 0.1266505 1.8730001
0.10113429 0.12597428 1.863
0.10468286 0.12597428 1.863
0.10823143 0.12597428 1.863
0.11178 0.12597428 1.863
0.11470952 0.1252981 1.853
0.11823905 0.1252981 1.853
0.12176857 0.1252981 1.853
0.1252981 0.1252981 1.853
0.12882762 0.1252981 1.853
0.13164286 0.1246219 1.8430001
0.13515334 0.1246219 1.8430001
0.13866381 0.1246219 1.8430001
0.14217429 0.1246219 1.8430001
0.14568476 0.1246219 1.8430001
0.14838572 0.12394572 1.8330001
0.15187715 0.12394572 1.8330001
-0.10743334 0.14259334 2.0510001
-0.10292095 0.14175905 2.039
-0.099037141 0.14175905 2.039
-0.094593339 0.14092477 2.0270002
-0.090732388 0.14092477 2.0270002
-0.086871438 0.14092477 2.0270002
-0.083010487 0.14092477 2.0270002
-0.078680955 0.14009048 2.0150001
-0.074842863 0.14009048 2.0150001
-0.071004763 0.14009048 2.0150001
-0.066766672 0.13925618 2.003
-0.063328572 0.14009048 2.0150001
-0.05949048 0.14009048 2.0150001
-0.05565238 0.14009048 2.0150001
-0.052122861 0.14092477 2.0270002
-0.048261907 0.14092477 2.0270002
-0.044400956 0.14092477 2.0270002
-0.04078 0.14175905 2.039
-0.036896192 0.14175905 2.039
-0.033012383 0.14175905 2.039
-0.029128572 0.14175905 2.039
-0.025244761 0.14175905 2.039
-0.021235241 0.14092477 2.0270002
-0.017374288 0.14092477 2.0270002
-0.013513334 0.14092477 2.0270002
-0.0095952386 0.14009048 2.0150001
-0.0057228571 0.13925618 2.003
-0.0019076191 0.13925618 2.003
0.0019076191 0.13925618 2.003
0.0057228571 0.13925618 2.003
0.0094857151 0.13849142 1.9920001
0.013280001 0.13849142 1.9920001
0.01697143 0.13765715 1.9800001
0.020742858 0.13765715 1.9800001
0.024378097 0.13689239 1.9690001
0.028128574 0.13689239 1.9690001
0.03170095 0.13612762 1.9580001
0.035430476 0.13612762 1.9580001
0.039159998 0.13612762 1.9580001
0.042648572 0.13536286 1.9470001
0.046357144 0.13536286 1.9470001
0.04896 0.13237333 1.904
0.052310478 0.1316781 1.8940001
0.063180953 0.14878096 2.1400001
0.067257144 0.14878096 2.1400001
0.071333334 0.14878096 2.1400001
0.065296195 0.12882762 1.853
0.068082854 0.12743714 1.8330001
0.071574286 0.12743714 1.8330001
0.074697152 0.12681143 1.8240001
0.078557141 0.12743714 1.8330001
0.082048573 0.12743714 1.8330001
0.085540004 0.12743714 1.8330001
0.089517146 0.12813239 1.8430001
0.093532376 0.12882762 1.853
0.097585715 0.12952286 1.863
0.10113429 0.12952286 1.863
0.10468286 0.12952286 1.863
0.10823143 0.12952286 1.863
0.11118001 0.12882762 1.853
0.11470952 0.12882762 1.853
0.11823905 0.12882762 1.853
0.12176857 0.12882762 1.853
0.1252981 0.12882762 1.853
0.12813239 0.12813239 1.8430001
0.13164286 0.12813239 1.8430001
0.13515334 0.12813239 1.8430001
0.13866381 0.12813239 1.8430001
0.14217429 0.12813239 1.8430001
0.14568476 0.12813239 1.8430001
0.14838572 0.12743714 1.8330001
0.15187715 0.12743714 1.8330001
0.15536858 0.12743714 1.8330001
0.15886001 0.12743714 1.8330001
-0.10292095 0.14564286 2.039
-0.098454289 0.14478572 2.0270002
-0.094033338 0.14392859 2.0150001
-0.090195239 0.14392859 2.0150001
-0.086357147 0.14392859 2.0150001
-0.082519054 0.14392859 2.0150001
-0.078680955 0.14392859 2.0150001
-0.074397147 0.14307143 2.003
-0.070581906 0.14307143 2.003
-0.066766672 0.14307143 2.003
-0.062951431 0.14307143 2.003
-0.05949048 0.14392859 2.0150001
-0.05565238 0.14392859 2.0150001
-0.051814288 0.14392859 2.0150001
-0.047976192 0.14392859 2.0150001
-0.044400956 0.14478572 2.0270002
-0.040540006 0.14478572 2.0270002
-0.036679052 0.14478572 2.0270002
-0.033012383 0.14564286 2.039
-0.029128572 0.14564286 2.039
-0.025096191 0.14478572 2.0270002
-0.021109525 0.14392859 2.0150001
-0.017271429 0.14392859 2.0150001
-0.013433333 0.14392859 2.0150001
-0.0095952386 0.14392859 2.0150001
-0.0057228571 0.14307143 2.003
-0.0019076191 0.14307143 2.003
0.0019076191 0.14307143 2.003
0.0056914287 0.14228572 1.9920001
0.0094857151 0.14228572 1.9920001
0.013200001 0.14142859 1.9800001
0.016877143 0.14064285 1.9690001
0.02062762 0.14064285 1.9690001
0.024378097 0.14064285 1.9690001
0.02797143 0.13985714 1.9580001
0.03170095 0.13985714 1.9580001
0.035430476 0.13985714 1.9580001
0.038940005 0.13907143 1.9470001
0.042407621 0.13828573 1.9360001
0.04559524 0.13678572 1.9150001
0.04896 0.13600001 1.904
0.052310478 0.13528572 1.8940001
0.055593338 0.13450001 1.8830001
0.058865719 0.13378572 1.8730001
0.06243334 0.13378572 1.8730001
0.065296195 0.13235715 1.853
0.06845428 0.13164286 1.8430001
0.071964763 0.13164286 1.8430001
0.075065717 0.13092858 1.8330001
0.078557141 0.13092858 1.8330001
0.082048573 0.13092858 1.8330001
0.085540004 0.13092858 1.8330001
0.089517146 0.13164286 1.8430001
0.093532376 0.13235715 1.853
0.097585715 0.13307144 1.863
0.10059143 0.13235715 1.853
0.10412095 0.13235715 1.853
0.10765048 0.13235715 1.853
0.11118001 0.13235715 1.853
0.11470952 0.13235715 1.853
0.11823905 0.13235715 1.853
0.12111144 0.13164286 1.8430001
0.1252981 0.13235715 1.853
0.12813239 0.13164286 1.8430001
0.13164286 0.13164286 1.8430001
0.13515334 0.13164286 1.8430001
0.13866381 0.13164286 1.8430001
0.14140286 0.13092858 1.8330001
0.14489429 0.13092858 1.8330001
0.14838572 0.13092858 1.8330001
0.15187715 0.13092858 1.8330001
0.15460573 0.13028571 1.8240001
0.15808001 0.13028571 1.8240001
-0.10170953 0.14776668 2.0150001
-0.097871438 0.14776668 2.0150001
-0.094033338 0.14776668 2.0150001
-0.090195239 0.14776668 2.0150001
-0.086357147 0.14776668 2.0150001
-0.082027614 0.14688666 2.003
-0.07821238 0.14688666 2.003
-0.074397147 0.14688666 2.003
-0.070581906 0.14688666 2.003
-0.066766672 0.14688666 2.003
-0.062951431 0.14688666 2.003
-0.059136193 0.14688666 2.003
-0.055320952 0.14688666 2.003
-0.051505715 0.14688666 2.003
-0.047976192 0.14776668 2.0150001
-0.044138096 0.14776668 2.0150001
-0.0403 0.14776668 2.0150001
-0.036461908 0.14776668 2.0150001
-0.032623809 0.14776668 2.0150001
-0.028785717 0.14776668 2.0150001
-0.024947621 0.14776668 2.0150001
-0.021109525 0.14776668 2.0150001
-0.017168572 0.14688666 2.003
-0.013353333 0.14688666 2.003
-0.0095380954 0.14688666 2.003
-0.0056914287 0.14608 1.9920001
-0.001897143 0.14608 1.9920001
0.001897143 0.14608 1.9920001
0.0056571434 0.1452 1.9800001
0.0093761906 0.14439334 1.9690001
0.013126668 0.14439334 1.9690001
0.016782857 0.14358667 1.9580001
0.020512382 0.14358667 1.9580001
0.024241906 0.14358667 1.9580001
0.02797143 0.14358667 1.9580001
0.031522859 0.14278001 1.9470001
0.03523143 0.14278001 1.9470001
0.038720001 0.14197333 1.9360001
0.042166669 0.14116667 1.9250001
0.04559524 0.14043333 1.9150001
0.04896 0.13962667 1.904
0.052006669 0.13808668 1.8830001
0.055298097 0.13735335 1.8730001
0.058865719 0.13735335 1.8730001
0.062100001 0.13662 1.863
0.065296195 0.13588667 1.853
0.068825714 0.13588667 1.853
0.071964763 0.13515334 1.8430001
0.074697152 0.13376001 1.8240001
0.078171432 0.13376001 1.8240001
0.08164572 0.13376001 1.8240001
0.085120007 0.13376001 1.8240001
0.089031428 0.13442001 1.8330001
0.093027622 0.13515334 1.8430001
0.097061902 0.13588667 1.853
0.10059143 0.13588667 1.853
0.10412095 0.13588667 1.853
0.10765048 0.13588667 1.853
0.11118001 0.13588667 1.853
0.11409048 0.13515334 1.8430001
0.11760096 0.13515334 1.8430001
0.12111144 0.13515334 1.8430001
0.1246219 0.13515334 1.8430001
0.12813239 0.13515334 1.8430001
0.13164286 0.13515334 1.8430001
0.13515334 0.13515334 1.8430001
0.13791144 0.13442001 1.8330001
0.14140286 0.13442001 1.8330001
0.14489429 0.13442001 1.8330001
0.14838572 0.13442001 1.8330001
0.15187715 0.13442001 1.8330001
0.15536858 0.13442001 1.8330001
0.15886001 0.13442001 1.8330001
-0.10170953 0.15160477 2.0150001
-0.097871438 0.15160477 2.0150001
-0.094033338 0.15160477 2.0150001
-0.090195239 0.15160477 2.0150001
-0.086357147 0.15160477 2.0150001
-0.082519054 0.15160477 2.0150001
-0.07821238 0.1507019 2.003
-0.074397147 0.1507019 2.003
-0.070581906 0.1507019 2.003
-0.066766672 0.1507019 2.003
-0.062951431 0.1507019 2.003
-0.059136193 0.1507019 2.003
-0.055320952 0.1507019 2.003
-0.051505715 0.1507019 2.003
-0.047690477 0.1507019 2.003
-0.043875236 0.1507019 2.003
-0.040059999 0.1507019 2.003
-0.036244761 0.1507019 2.003
-0.032623809 0.15160477 2.0150001
-0.028614286 0.1507019 2.003
-0.024799047 0.1507019 2.003
-0.02098381 0.1507019 2.003
-0.017168572 0.1507019 2.003
-0.013353333 0.1507019 2.003
-0.0095380954 0.1507019 2.003
-0.0056914287 0.1498743 1.9920001
-0.001897143 0.1498743 1.9920001
0.001897143 0.1498743 1.9920001
0.0056571434 0.14897144 1.9800001
0.0093761906 0.14814381 1.9690001
0.013053333 0.1473162 1.9580001
0.016688572 0.14648859 1.9470001
0.020397143 0.14648859 1.9470001
0.024241906 0.1473162 1.9580001
0.027814288 0.14648859 1.9470001
0.031522859 0.14648859 1.9470001
0.03523143 0.14648859 1.9470001
0.038720001 0.14566097 1.9360001
0.041947622 0.14408095 1.9150001
0.045333333 0.14325333 1.904
0.048702858 0.14250095 1.8940001
0.05173048 0.14092097 1.8730001
0.055298097 0.14092097 1.8730001
0.058551427 0.14016858 1.863
0.061766669 0.1394162 1.853
0.065296195 0.1394162 1.853
0.06845428 0.13866381 1.8430001
0.071964763 0.13866381 1.8430001
0.075065717 0.13791144 1.8330001
0.078171432 0.13723429 1.8240001
0.081198096 0.13648191 1.8140001
0.085120007 0.13723429 1.8240001
0.088594295 0.13723429 1.8240001
0.09252286 0.13791144 1.8330001
0.096538097 0.13866381 1.8430001
0.10004857 0.13866381 1.8430001
0.10355905 0.13866381 1.8430001
0.10706953 0.13866381 1.8430001
0.11118001 0.1394162 1.853
0.11409048 0.13866381 1.8430001
0.11760096 0.13866381 1.8430001
0.12111144 0.13866381 1.8430001
0.1246219 0.13866381 1.8430001
0.12813239 0.13866381 1.8430001
0.13164286 0.13866381 1.8430001
0.13515334 0.13866381 1.8430001
0.13791144 0.13791144 1.8330001
