# .PCD v0.7 - Point Cloud Data file format
VERSION 0.7
FIELDS x y z
SIZE 4 4 4
TYPE F F F
COUNT 1 1 1
WIDTH 1505
HEIGHT 1
VIEWPOINT 0 0 0 1 0 0 0
POINTS 1505
DATA ascii
0.35041335 -0.062268574 1.2820001
0.35147905 -0.062025718 1.2770001
0.35391146 -0.062025718 1.2770001
0.35494858 -0.061782859 1.2720001
0.35737145 -0.061782859 1.2720001
0.35979432 -0.061782859 1.2720001
0.36221716 -0.061782859 1.2720001
0.36205998 -0.061345715 1.263
0.36446571 -0.061345715 1.263
0.36570954 -0.061151426 1.2590001
0.36810765 -0.061151426 1.2590001
0.36756286 -0.060665719 1.2490001
0.36875716 -0.060471427 1.245
0.37112856 -0.060471427 1.245
0.37349999 -0.060471427 1.245
0.37587142 -0.060471427 1.245
0.37824285 -0.060471427 1.245
0.38061428 -0.060471427 1.245
0.38298571 -0.060471427 1.245
0.38535714 -0.060471427 1.245
0.38772857 -0.060471427 1.245
0.38853332 -0.060228571 1.24
0.39089525 -0.060228571 1.24
0.39325714 -0.060228571 1.24
0.39434287 -0.060034286 1.2360001
0.39669716 -0.060034286 1.2360001
0.40650192 -0.059402857 1.223
0.40883145 -0.059402857 1.223
0.41116098 -0.059402857 1.223
0.41349047 -0.059402857 1.223
0.41446003 -0.059208576 1.2190001
0.41678193 -0.059208576 1.2190001
0.41738477 -0.05896572 1.2140001
0.41969717 -0.05896572 1.2140001
0.42200956 -0.05896572 1.2140001
0.42432192 -0.05896572 1.2140001
0.4252286 -0.058771431 1.21
0.42753333 -0.058771431 1.21
0.42983812 -0.058771431 1.21
0.43214285 -0.058771431 1.21
0.43301147 -0.058577146 1.2060001
0.43530861 -0.058577146 1.2060001
0.43615428 -0.058382858 1.202
0.43844381 -0.058382858 1.202
0.44073334 -0.058382858 1.202
0.44302288 -0.058382858 1.202
0.44531238 -0.058382858 1.202
0.44760188 -0.058382858 1.202
0.44989145 -0.058382858 1.202
0.45218095 -0.058382858 1.202
0.45258 -0.058139998 1.197
0.45486 -0.058139998 1.197
0.45561242 -0.057945717 1.1930001
0.45788479 -0.057945717 1.1930001
0.46015719 -0.057945717 1.1930001
0.46242955 -0.057945717 1.1930001
0.4631438 -0.057751428 1.189
0.46697432 -0.057945717 1.1930001
0.46924672 -0.057945717 1.1930001
0.47151908 -0.057945717 1.1930001
0.47379145 -0.057945717 1.1930001
0.49266002 -0.056974292 1.1730001
0.49489433 -0.056974292 1.1730001
0.49543333 -0.056780003 1.169
0.49936292 -0.056974292 1.1730001
0.50159723 -0.056974292 1.1730001
0.50383151 -0.056974292 1.1730001
0.50779146 -0.057168569 1.177
0.50830001 -0.056974292 1.1730001
0.51053429 -0.056974292 1.1730001
0.51276863 -0.056974292 1.1730001
0.30205336 -0.06141334 1.3160001
0.30456001 -0.06141334 1.3160001
0.30706668 -0.06141334 1.3160001
0.30957335 -0.06141334 1.3160001
0.31208003 -0.06141334 1.3160001
0.3145867 -0.06141334 1.3160001
0.31709334 -0.06141334 1.3160001
0.31717145 -0.060946673 1.3060001
0.31965908 -0.060946673 1.3060001
0.32214668 -0.060946673 1.3060001
0.32339147 -0.060713336 1.3010001
0.32586953 -0.060713336 1.3010001
0.3270857 -0.060480002 1.296
0.32955429 -0.060480002 1.296
0.33202285 -0.060480002 1.296
0.33449143 -0.060480002 1.296
0.33696002 -0.060480002 1.296
0.33942857 -0.060480002 1.296
0.34057808 -0.060246665 1.291
0.34197432 -0.060060002 1.2870001
0.34308761 -0.059826672 1.2820001
0.34552956 -0.059826672 1.2820001
0.34797144 -0.059826672 1.2820001
0.35041335 -0.059826672 1.2820001
0.35285524 -0.059826672 1.2820001
0.35391146 -0.059593335 1.2770001
0.35634381 -0.059593335 1.2770001
0.35877621 -0.059593335 1.2770001
0.35866287 -0.059173334 1.268
0.36107808 -0.059173334 1.268
0.36205998 -0.058940001 1.263
0.36446571 -0.058940001 1.263
0.36570954 -0.058753334 1.2590001
0.36810765 -0.058753334 1.2590001
0.36903429 -0.05852 1.2540001
0.36994192 -0.058286671 1.2490001
0.37112856 -0.0581 1.245
0.37349999 -0.0581 1.245
0.37587142 -0.0581 1.245
0.37824285 -0.0581 1.245
0.38061428 -0.0581 1.245
0.38298571 -0.0581 1.245
0.38535714 -0.0581 1.245
0.38772857 -0.0581 1.245
0.38853332 -0.057866666 1.24
0.39089525 -0.057866666 1.24
0.39198858 -0.057680003 1.2360001
0.39434287 -0.057680003 1.2360001
0.39669716 -0.057680003 1.2360001
0.40783146 -0.057260003 1.2270001
0.40883145 -0.057073336 1.223
0.41116098 -0.057073336 1.223
0.41349047 -0.057073336 1.223
0.41582 -0.057073336 1.223
0.41678193 -0.056886673 1.2190001
0.41910386 -0.056886673 1.2190001
0.41969717 -0.056653336 1.2140001
0.42200956 -0.056653336 1.2140001
0.42432192 -0.056653336 1.2140001
0.4252286 -0.056466665 1.21
0.42753333 -0.056466665 1.21
0.42983812 -0.056466665 1.21
0.43071431 -0.056280006 1.2060001
0.43301147 -0.056280006 1.2060001
0.43386477 -0.056093335 1.202
0.43615428 -0.056093335 1.202
0.43844381 -0.056093335 1.202
0.44073334 -0.056093335 1.202
0.44302288 -0.056093335 1.202
0.44531238 -0.056093335 1.202
0.44760188 -0.056093335 1.202
0.44989145 -0.056093335 1.202
0.45218095 -0.056093335 1.202
0.45258 -0.055859998 1.197
0.45486 -0.055859998 1.197
0.45714 -0.055859998 1.197
0.45788479 -0.055673338 1.1930001
0.46015719 -0.055673338 1.1930001
0.46242955 -0.055673338 1.1930001
0.4631438 -0.055486668 1.189
0.46697432 -0.055673338 1.1930001
0.46767333 -0.055486668 1.189
0.4699381 -0.055486668 1.189
0.47220287 -0.055486668 1.189
0.49266002 -0.054740004 1.1730001
0.49489433 -0.054740004 1.1730001
0.49712861 -0.054740004 1.1730001
0.49936292 -0.054740004 1.1730001
0.50159723 -0.054740004 1.1730001
0.50554955 -0.054926671 1.177
0.50779146 -0.054926671 1.177
0.51003337 -0.054926671 1.177
0.51227528 -0.054926671 1.177
0.51451719 -0.054926671 1.177
0.5167591 -0.054926671 1.177
0.30205336 -0.058906671 1.3160001
0.30456001 -0.058906671 1.3160001
0.30706668 -0.058906671 1.3160001
0.30957335 -0.058906671 1.3160001
0.31326574 -0.059130482 1.3210001
0.31578192 -0.059130482 1.3210001
0.31709334 -0.058906671 1.3160001
0.31838572 -0.058682859 1.3110001
0.31843525 -0.058235243 1.3010001
0.32091337 -0.058235243 1.3010001
0.32339147 -0.058235243 1.3010001
0.32586953 -0.058235243 1.3010001
0.32834765 -0.058235243 1.3010001
0.33082575 -0.058235243 1.3010001
0.33330384 -0.058235243 1.3010001
0.33578193 -0.058235243 1.3010001
0.33826002 -0.058235243 1.3010001
0.33942857 -0.058011428 1.296
0.34189713 -0.058011428 1.296
0.34303713 -0.05778762 1.291
0.34442571 -0.057608575 1.2870001
0.34552956 -0.057384763 1.2820001
0.34797144 -0.057384763 1.2820001
0.35041335 -0.057384763 1.2820001
0.35147905 -0.057160955 1.2770001
0.35391146 -0.057160955 1.2770001
0.35634381 -0.057160955 1.2770001
0.35877621 -0.057160955 1.2770001
0.35866287 -0.056758095 1.268
0.36107808 -0.056758095 1.268
0.36205998 -0.056534287 1.263
0.36446571 -0.056534287 1.263
0.36570954 -0.056355242 1.2590001
0.36810765 -0.056355242 1.2590001
0.36903429 -0.05613143 1.2540001
0.37142286 -0.05613143 1.2540001
0.37232095 -0.055907622 1.2490001
0.37349999 -0.05572857 1.245
0.37587142 -0.05572857 1.245
0.37824285 -0.05572857 1.245
0.38061428 -0.05572857 1.245
0.38298571 -0.05572857 1.245
0.38535714 -0.05572857 1.245
0.38772857 -0.05572857 1.245
0.38853332 -0.055504762 1.24
0.39089525 -0.055504762 1.24
0.39198858 -0.055325717 1.2360001
0.39561903 -0.055504762 1.24
0.39798096 -0.055504762 1.24
0.40714669 -0.055146672 1.2320001
0.40949339 -0.055146672 1.2320001
0.41016859 -0.054922864 1.2270001
0.41250575 -0.054922864 1.2270001
0.4148429 -0.054922864 1.2270001
0.41582 -0.054743811 1.223
0.41814953 -0.054743811 1.223
0.41910386 -0.054564763 1.2190001
0.42142576 -0.054564763 1.2190001
0.42200956 -0.054340959 1.2140001
0.42432192 -0.054340959 1.2140001
0.4252286 -0.054161906 1.21
0.42753333 -0.054161906 1.21
0.42983812 -0.054161906 1.21
0.43071431 -0.053982858 1.2060001
0.43301147 -0.053982858 1.2060001
0.43530861 -0.053982858 1.2060001
0.43760574 -0.053982858 1.2060001
0.43844381 -0.053803809 1.202
0.44220003 -0.053982858 1.2060001
0.44302288 -0.053803809 1.202
0.44531238 -0.053803809 1.202
0.44760188 -0.053803809 1.202
0.44989145 -0.053803809 1.202
0.45218095 -0.053803809 1.202
0.45258 -0.053580001 1.197
0.45486 -0.053580001 1.197
0.45714 -0.053580001 1.197
0.45788479 -0.053400956 1.1930001
0.46015719 -0.053400956 1.1930001
0.46242955 -0.053400956 1.1930001
0.4631438 -0.053221904 1.189
0.46697432 -0.053400956 1.1930001
0.46924672 -0.053400956 1.1930001
0.4699381 -0.053221904 1.189
0.47220287 -0.053221904 1.189
0.49489433 -0.052505717 1.1730001
0.49712861 -0.052505717 1.1730001
0.50106573 -0.052684762 1.177
0.50330764 -0.052684762 1.177
0.50554955 -0.052684762 1.177
0.50779146 -0.052684762 1.177
0.51003337 -0.052684762 1.177
0.51227528 -0.052684762 1.177
0.51276863 -0.052505717 1.1730001
0.51500291 -0.052505717 1.1730001
0.30456001 -0.056400005 1.3160001
0.30823335 -0.056614287 1.3210001
0.31074953 -0.056614287 1.3210001
0.31326574 -0.056614287 1.3210001
0.31578192 -0.056614287 1.3210001
0.31709334 -0.056400005 1.3160001
0.31838572 -0.056185719 1.3110001
0.31965908 -0.055971432 1.3060001
0.32091337 -0.055757146 1.3010001
0.32463431 -0.055971432 1.3060001
0.32586953 -0.055757146 1.3010001
0.32834765 -0.055757146 1.3010001
0.33082575 -0.055757146 1.3010001
0.33330384 -0.055757146 1.3010001
0.33578193 -0.055757146 1.3010001
0.33826002 -0.055757146 1.3010001
0.34073812 -0.055757146 1.3010001
0.34189713 -0.055542856 1.296
0.34303713 -0.05532857 1.291
0.34442571 -0.055157144 1.2870001
0.34687716 -0.055157144 1.2870001
0.34797144 -0.054942857 1.2820001
0.35041335 -0.054942857 1.2820001
0.35147905 -0.054728575 1.2770001
0.35391146 -0.054728575 1.2770001
0.35634381 -0.054728575 1.2770001
0.35877621 -0.054728575 1.2770001
0.35866287 -0.054342858 1.268
0.36107808 -0.054342858 1.268
0.36205998 -0.054128569 1.263
0.36446571 -0.054128569 1.263
0.36570954 -0.053957146 1.2590001
0.36810765 -0.053957146 1.2590001
0.36756286 -0.053528573 1.2490001
0.36994192 -0.053528573 1.2490001
0.37112856 -0.053357143 1.245
0.37349999 -0.053357143 1.245
0.37587142 -0.053357143 1.245
0.3767238 -0.053142857 1.24
0.38061428 -0.053357143 1.245
0.38298571 -0.053357143 1.245
0.38535714 -0.053357143 1.245
0.38772857 -0.053357143 1.245
0.38853332 -0.053142857 1.24
0.39089525 -0.053142857 1.24
0.39325714 -0.053142857 1.24
0.39561903 -0.053142857 1.24
0.39669716 -0.05297143 1.2360001
0.39905146 -0.05297143 1.2360001
0.40714669 -0.052800007 1.2320001
0.40783146 -0.052585717 1.2270001
0.41016859 -0.052585717 1.2270001
0.41250575 -0.052585717 1.2270001
0.4148429 -0.052585717 1.2270001
0.41718003 -0.052585717 1.2270001
0.41814953 -0.052414287 1.223
0.41910386 -0.05224286 1.2190001
0.42142576 -0.05224286 1.2190001
0.42200956 -0.052028574 1.2140001
0.42432192 -0.052028574 1.2140001
0.4252286 -0.051857144 1.21
0.42753333 -0.051857144 1.21
0.42983812 -0.051857144 1.21
0.43214285 -0.051857144 1.21
0.43301147 -0.051685717 1.2060001
0.43530861 -0.051685717 1.2060001
0.43760574 -0.051685717 1.2060001
0.4399029 -0.051685717 1.2060001
0.44220003 -0.051685717 1.2060001
0.44302288 -0.051514287 1.202
0.44531238 -0.051514287 1.202
0.44574001 -0.0513 1.197
0.44989145 -0.051514287 1.202
0.45218095 -0.051514287 1.202
0.45258 -0.0513 1.197
0.45486 -0.0513 1.197
0.45561242 -0.051128577 1.1930001
0.45788479 -0.051128577 1.1930001
0.46015719 -0.051128577 1.1930001
0.46242955 -0.051128577 1.1930001
0.4631438 -0.050957143 1.189
0.46697432 -0.051128577 1.1930001
0.46767333 -0.050957143 1.189
0.4699381 -0.050957143 1.189
0.47061431 -0.050785717 1.1850001
0.47287142 -0.050785717 1.1850001
0.49489433 -0.050271433 1.1730001
0.49712861 -0.050271433 1.1730001
0.49936292 -0.050271433 1.1730001
0.50330764 -0.05044286 1.177
0.50554955 -0.05044286 1.177
0.50779146 -0.05044286 1.177
0.51003337 -0.05044286 1.177
0.51227528 -0.05044286 1.177
0.51451719 -0.05044286 1.177
0.5167591 -0.05044286 1.177
0.30571717 -0.054098099 1.3210001
0.30823335 -0.054098099 1.3210001
0.31074953 -0.054098099 1.3210001
0.31326574 -0.054098099 1.3210001
0.31578192 -0.054098099 1.3210001
0.31709334 -0.053893339 1.3160001
0.31838572 -0.053688575 1.3110001
0.31965908 -0.053483814 1.3060001
0.32091337 -0.05327905 1.3010001
0.32463431 -0.053483814 1.3060001
0.32586953 -0.05327905 1.3010001
0.32834765 -0.05327905 1.3010001
0.33082575 -0.05327905 1.3010001
0.33330384 -0.05327905 1.3010001
0.33578193 -0.05327905 1.3010001
0.33826002 -0.05327905 1.3010001
0.33942857 -0.053074285 1.296
0.34189713 -0.053074285 1.296
0.34303713 -0.052869525 1.291
0.34549618 -0.052869525 1.291
0.34795523 -0.052869525 1.291
0.35724857 -0.051722858 1.263
0.35965428 -0.051722858 1.263
0.36205998 -0.051722858 1.263
0.36331144 -0.05155905 1.2590001
0.36687142 -0.051722858 1.263
0.36810765 -0.05155905 1.2590001
0.36756286 -0.051149528 1.2490001
0.36875716 -0.050985713 1.245
0.36963809 -0.050780952 1.24
0.37200001 -0.050780952 1.24
0.37587142 -0.050985713 1.245
0.3767238 -0.050780952 1.24
0.38061428 -0.050985713 1.245
0.38298571 -0.050985713 1.245
0.38535714 -0.050985713 1.245
0.38772857 -0.050985713 1.245
0.38853332 -0.050780952 1.24
0.39089525 -0.050780952 1.24
0.39325714 -0.050780952 1.24
0.39561903 -0.050780952 1.24
0.39669716 -0.050617144 1.2360001
0.39905146 -0.050617144 1.2360001
0.4001067 -0.050453339 1.2320001
0.40245336 -0.050453339 1.2320001
0.40480003 -0.050453339 1.2320001
0.40714669 -0.050453339 1.2320001
0.40949339 -0.050453339 1.2320001
0.41016859 -0.050248574 1.2270001
0.41250575 -0.050248574 1.2270001
0.4148429 -0.050248574 1.2270001
0.41718003 -0.050248574 1.2270001
0.41814953 -0.050084762 1.223
0.42047906 -0.050084762 1.223
0.42142576 -0.049920954 1.2190001
0.42200956 -0.049716193 1.2140001
0.42432192 -0.049716193 1.2140001
0.4252286 -0.049552381 1.21
0.42753333 -0.049552381 1.21
0.42983812 -0.049552381 1.21
0.43214285 -0.049552381 1.21
0.43444762 -0.049552381 1.21
0.43530861 -0.049388576 1.2060001
0.43760574 -0.049388576 1.2060001
0.4399029 -0.049388576 1.2060001
0.44220003 -0.049388576 1.2060001
0.44449717 -0.049388576 1.2060001
0.4467943 -0.049388576 1.2060001
0.44574001 -0.04902 1.197
0.44802001 -0.04902 1.197
0.45030001 -0.04902 1.197
0.45258 -0.04902 1.197
0.45486 -0.04902 1.197
0.45561242 -0.048856195 1.1930001
0.45788479 -0.048856195 1.1930001
0.46015719 -0.048856195 1.1930001
0.46242955 -0.048856195 1.1930001
0.4631438 -0.048692379 1.189
0.46697432 -0.048856195 1.1930001
0.46767333 -0.048692379 1.189
0.4699381 -0.048692379 1.189
0.47220287 -0.048692379 1.189
0.47606385 -0.048856195 1.1930001
0.47833622 -0.048856195 1.1930001
0.49489433 -0.048037145 1.1730001
0.49712861 -0.048037145 1.1730001
0.49936292 -0.048037145 1.1730001
0.50159723 -0.048037145 1.1730001
0.50554955 -0.048200954 1.177
0.50779146 -0.048200954 1.177
0.51003337 -0.048200954 1.177
0.51227528 -0.048200954 1.177
0.51451719 -0.048200954 1.177
0.5167591 -0.048200954 1.177
0.30571717 -0.051581908 1.3210001
0.30823335 -0.051581908 1.3210001
0.31074953 -0.051581908 1.3210001
0.31326574 -0.051581908 1.3210001
0.31578192 -0.051581908 1.3210001
0.31709334 -0.051386669 1.3160001
0.31838572 -0.051191431 1.3110001
0.31965908 -0.050996196 1.3060001
0.32214668 -0.050996196 1.3060001
0.32463431 -0.050996196 1.3060001
0.32586953 -0.050800957 1.3010001
0.32834765 -0.050800957 1.3010001
0.33082575 -0.050800957 1.3010001
0.33330384 -0.050800957 1.3010001
0.33578193 -0.050800957 1.3010001
0.33826002 -0.050800957 1.3010001
0.33942857 -0.050605714 1.296
0.34189713 -0.050605714 1.296
0.34436572 -0.050605714 1.296
0.34549618 -0.050410476 1.291
0.34795523 -0.050410476 1.291
0.35484284 -0.049317144 1.263
0.35724857 -0.049317144 1.263
0.35965428 -0.049317144 1.263
0.36205998 -0.049317144 1.263
0.36446571 -0.049317144 1.263
0.36570954 -0.049160954 1.2590001
0.36810765 -0.049160954 1.2590001
0.36903429 -0.048965715 1.2540001
0.36994192 -0.04877048 1.2490001
0.37112856 -0.048614286 1.245
0.37470001 -0.04877048 1.2490001
0.37707907 -0.04877048 1.2490001
0.37824285 -0.048614286 1.245
0.38061428 -0.048614286 1.245
0.38298571 -0.048614286 1.245
0.38535714 -0.048614286 1.245
0.38772857 -0.048614286 1.245
0.3901 -0.048614286 1.245
0.39089525 -0.048419047 1.24
0.39325714 -0.048419047 1.24
0.39561903 -0.048419047 1.24
0.39541337 -0.04810667 1.2320001
0.39776003 -0.04810667 1.2320001
0.4001067 -0.04810667 1.2320001
0.40245336 -0.04810667 1.2320001
0.40480003 -0.04810667 1.2320001
0.40714669 -0.04810667 1.2320001
0.40949339 -0.04810667 1.2320001
0.41016859 -0.047911432 1.2270001
0.41250575 -0.047911432 1.2270001
0.4148429 -0.047911432 1.2270001
0.41718003 -0.047911432 1.2270001
0.41814953 -0.047755238 1.223
0.42047906 -0.047755238 1.223
0.42142576 -0.047599051 1.2190001
0.42374763 -0.047599051 1.2190001
0.42432192 -0.047403816 1.2140001
0.4252286 -0.047247618 1.21
0.42753333 -0.047247618 1.21
0.42983812 -0.047247618 1.21
0.43214285 -0.047247618 1.21
0.43444762 -0.047247618 1.21
0.43675241 -0.047247618 1.21
0.43760574 -0.047091432 1.2060001
0.4399029 -0.047091432 1.2060001
0.44220003 -0.047091432 1.2060001
0.44449717 -0.047091432 1.2060001
0.4467943 -0.047091432 1.2060001
0.44760188 -0.046935238 1.202
0.44802001 -0.046739999 1.197
0.45030001 -0.046739999 1.197
0.45258 -0.046739999 1.197
0.45486 -0.046739999 1.197
0.45561242 -0.046583813 1.1930001
0.45788479 -0.046583813 1.1930001
0.46015719 -0.046583813 1.1930001
0.46242955 -0.046583813 1.1930001
0.46470195 -0.046583813 1.1930001
0.46697432 -0.046583813 1.1930001
0.46924672 -0.046583813 1.1930001
0.47151908 -0.046583813 1.1930001
0.47379145 -0.046583813 1.1930001
0.47766 -0.046739999 1.197
0.47994 -0.046739999 1.197
0.49489433 -0.045802858 1.1730001
0.49712861 -0.045802858 1.1730001
0.49936292 -0.045802858 1.1730001
0.50330764 -0.045959052 1.177
0.50554955 -0.045959052 1.177
0.50779146 -0.045959052 1.177
0.51003337 -0.045959052 1.177
0.51227528 -0.045959052 1.177
0.51451719 -0.045959052 1.177
0.5167591 -0.045959052 1.177
0.30571717 -0.049065717 1.3210001
0.30823335 -0.049065717 1.3210001
0.31074953 -0.049065717 1.3210001
0.31326574 -0.049065717 1.3210001
0.3145867 -0.048880003 1.3160001
0.31709334 -0.048880003 1.3160001
0.31838572 -0.04869429 1.3110001
0.31965908 -0.048508577 1.3060001
0.32214668 -0.048508577 1.3060001
0.32463431 -0.048508577 1.3060001
0.32586953 -0.048322864 1.3010001
0.32834765 -0.048322864 1.3010001
0.33082575 -0.048322864 1.3010001
0.33330384 -0.048322864 1.3010001
0.33578193 -0.048322864 1.3010001
0.33826002 -0.048322864 1.3010001
0.33942857 -0.04813714 1.296
0.34189713 -0.04813714 1.296
0.34303713 -0.047951426 1.291
0.34549618 -0.047951426 1.291
0.34795523 -0.047951426 1.291
0.35243714 -0.04691143 1.263
0.35484284 -0.04691143 1.263
0.35724857 -0.04691143 1.263
0.35965428 -0.04691143 1.263
0.36205998 -0.04691143 1.263
0.36446571 -0.04691143 1.263
0.36570954 -0.046762858 1.2590001
0.36810765 -0.046762858 1.2590001
0.36903429 -0.046577144 1.2540001
0.37142286 -0.046577144 1.2540001
0.37232095 -0.046391431 1.2490001
0.37619999 -0.046577144 1.2540001
0.37587142 -0.046242855 1.245
0.37824285 -0.046242855 1.245
0.38061428 -0.046242855 1.245
0.38298571 -0.046242855 1.245
0.38535714 -0.046242855 1.245
0.38617143 -0.046057142 1.24
0.38853332 -0.046057142 1.24
0.39089525 -0.046057142 1.24
0.39325714 -0.046057142 1.24
0.39561903 -0.046057142 1.24
0.39541337 -0.045760002 1.2320001
0.39776003 -0.045760002 1.2320001
0.4001067 -0.045760002 1.2320001
0.40245336 -0.045760002 1.2320001
0.40480003 -0.045760002 1.2320001
0.40714669 -0.045760002 1.2320001
0.40949339 -0.045760002 1.2320001
0.41184002 -0.045760002 1.2320001
0.41250575 -0.045574289 1.2270001
0.4148429 -0.045574289 1.2270001
0.41718003 -0.045574289 1.2270001
0.41951719 -0.045574289 1.2270001
0.42047906 -0.045425717 1.223
0.42142576 -0.045277145 1.2190001
0.42200956 -0.045091432 1.2140001
0.42432192 -0.045091432 1.2140001
0.4252286 -0.04494286 1.21
0.42753333 -0.04494286 1.21
0.42983812 -0.04494286 1.21
0.43214285 -0.04494286 1.21
0.43444762 -0.04494286 1.21
0.43675241 -0.04494286 1.21
0.43905714 -0.04494286 1.21
0.44136193 -0.04494286 1.21
0.44220003 -0.044794288 1.2060001
0.44449717 -0.044794288 1.2060001
0.4467943 -0.044794288 1.2060001
0.44760188 -0.044645716 1.202
0.44802001 -0.044460002 1.197
0.45030001 -0.044460002 1.197
0.45447049 -0.044645716 1.202
0.45486 -0.044460002 1.197
0.45714 -0.044460002 1.197
0.45942003 -0.044460002 1.197
0.46169999 -0.044460002 1.197
0.46398002 -0.044460002 1.197
0.46470195 -0.04431143 1.1930001
0.46697432 -0.04431143 1.1930001
0.46924672 -0.04431143 1.1930001
0.47151908 -0.04431143 1.1930001
0.47538 -0.044460002 1.197
0.47766 -0.044460002 1.197
0.47994 -0.044460002 1.197
0.49489433 -0.043568578 1.1730001
0.49712861 -0.043568578 1.1730001
0.49936292 -0.043568578 1.1730001
0.50330764 -0.043717142 1.177
0.50554955 -0.043717142 1.177
0.50779146 -0.043717142 1.177
0.51003337 -0.043717142 1.177
0.51227528 -0.043717142 1.177
0.51451719 -0.043717142 1.177
0.30571717 -0.046549525 1.3210001
0.30823335 -0.046549525 1.3210001
0.31074953 -0.046549525 1.3210001
0.31326574 -0.046549525 1.3210001
0.31578192 -0.046549525 1.3210001
0.31709334 -0.046373338 1.3160001
0.31838572 -0.046197146 1.3110001
0.31965908 -0.046020955 1.3060001
0.32214668 -0.046020955 1.3060001
0.32339147 -0.045844767 1.3010001
0.32586953 -0.045844767 1.3010001
0.32834765 -0.045844767 1.3010001
0.33082575 -0.045844767 1.3010001
0.33330384 -0.045844767 1.3010001
0.33578193 -0.045844767 1.3010001
0.33696002 -0.045668572 1.296
0.33942857 -0.045668572 1.296
0.34057808 -0.045492381 1.291
0.34303713 -0.045492381 1.291
0.34549618 -0.045492381 1.291
0.34795523 -0.045492381 1.291
0.35243714 -0.044505712 1.263
0.35484284 -0.044505712 1.263
0.35724857 -0.044505712 1.263
0.35965428 -0.044505712 1.263
0.36091334 -0.044364765 1.2590001
0.36331144 -0.044364765 1.2590001
0.36570954 -0.044364765 1.2590001
0.36810765 -0.044364765 1.2590001
0.36903429 -0.044188574 1.2540001
0.37142286 -0.044188574 1.2540001
0.37232095 -0.044012383 1.2490001
0.37470001 -0.044012383 1.2490001
0.37587142 -0.043871425 1.245
0.37824285 -0.043871425 1.245
0.38061428 -0.043871425 1.245
0.38298571 -0.043871425 1.245
0.38535714 -0.043871425 1.245
0.38617143 -0.043695237 1.24
0.38853332 -0.043695237 1.24
0.39089525 -0.043695237 1.24
0.39325714 -0.043695237 1.24
0.39434287 -0.043554287 1.2360001
0.39541337 -0.043413337 1.2320001
0.39614573 -0.04323715 1.2270001
0.4001067 -0.043413337 1.2320001
0.40245336 -0.043413337 1.2320001
0.40480003 -0.043413337 1.2320001
0.40714669 -0.043413337 1.2320001
0.40949339 -0.043413337 1.2320001
0.41184002 -0.043413337 1.2320001
0.41250575 -0.04323715 1.2270001
0.4148429 -0.04323715 1.2270001
0.41718003 -0.04323715 1.2270001
0.41951719 -0.04323715 1.2270001
0.42185432 -0.04323715 1.2270001
0.42142576 -0.042955242 1.2190001
0.42374763 -0.042955242 1.2190001
0.42432192 -0.042779051 1.2140001
0.42663431 -0.042779051 1.2140001
0.4289467 -0.042779051 1.2140001
0.42983812 -0.042638097 1.21
0.43214285 -0.042638097 1.21
0.43444762 -0.042638097 1.21
0.43675241 -0.042638097 1.21
0.43905714 -0.042638097 1.21
0.4399029 -0.042497143 1.2060001
0.44220003 -0.042497143 1.2060001
0.44449717 -0.042497143 1.2060001
0.44531238 -0.042356189 1.202
0.44760188 -0.042356189 1.202
0.44802001 -0.042180002 1.197
0.45030001 -0.042180002 1.197
0.45258 -0.042180002 1.197
0.45486 -0.042180002 1.197
0.45714 -0.042180002 1.197
0.45942003 -0.042180002 1.197
0.46169999 -0.042180002 1.197
0.46242955 -0.042039048 1.1930001
0.46470195 -0.042039048 1.1930001
0.46697432 -0.042039048 1.1930001
0.46924672 -0.042039048 1.1930001
0.47151908 -0.042039048 1.1930001
0.47379145 -0.042039048 1.1930001
0.47606385 -0.042039048 1.1930001
0.47833622 -0.042039048 1.1930001
0.48060861 -0.042039048 1.1930001
0.49489433 -0.04133429 1.1730001
0.49712861 -0.04133429 1.1730001
0.49936292 -0.04133429 1.1730001
0.50159723 -0.04133429 1.1730001
0.50383151 -0.04133429 1.1730001
0.50606573 -0.04133429 1.1730001
0.51003337 -0.04147524 1.177
0.51227528 -0.04147524 1.177
0.51451719 -0.04147524 1.177
0.30571717 -0.044033337 1.3210001
0.30823335 -0.044033337 1.3210001
0.31074953 -0.044033337 1.3210001
0.31326574 -0.044033337 1.3210001
0.3145867 -0.043866672 1.3160001
0.31709334 -0.043866672 1.3160001
0.31838572 -0.043700002 1.3110001
0.31965908 -0.043533336 1.3060001
0.32214668 -0.043533336 1.3060001
0.32339147 -0.043366671 1.3010001
0.32586953 -0.043366671 1.3010001
0.3270857 -0.043200001 1.296
0.33082575 -0.043366671 1.3010001
0.33330384 -0.043366671 1.3010001
0.33578193 -0.043366671 1.3010001
0.33826002 -0.043366671 1.3010001
0.33942857 -0.043200001 1.296
0.34057808 -0.043033335 1.291
0.34303713 -0.043033335 1.291
0.34549618 -0.043033335 1.291
0.34795523 -0.043033335 1.291
0.35243714 -0.042100001 1.263
0.35484284 -0.042100001 1.263
0.35724857 -0.042100001 1.263
0.35965428 -0.042100001 1.263
0.36091334 -0.041966669 1.2590001
0.36331144 -0.041966669 1.2590001
0.36570954 -0.041966669 1.2590001
0.36810765 -0.041966669 1.2590001
0.36903429 -0.041800003 1.2540001
0.37142286 -0.041800003 1.2540001
0.37232095 -0.041633338 1.2490001
0.37619999 -0.041800003 1.2540001
0.37858859 -0.041800003 1.2540001
0.37824285 -0.041499998 1.245
0.38061428 -0.041499998 1.245
0.38298571 -0.041499998 1.245
0.38535714 -0.041499998 1.245
0.38772857 -0.041499998 1.245
0.3901 -0.041499998 1.245
0.39089525 -0.041333333 1.24
0.39325714 -0.041333333 1.24
0.39561903 -0.041333333 1.24
0.39541337 -0.041066669 1.2320001
0.39614573 -0.040900003 1.2270001
0.4001067 -0.041066669 1.2320001
0.40245336 -0.041066669 1.2320001
0.40480003 -0.041066669 1.2320001
0.40714669 -0.041066669 1.2320001
0.40949339 -0.041066669 1.2320001
0.41184002 -0.041066669 1.2320001
0.41250575 -0.040900003 1.2270001
0.4148429 -0.040900003 1.2270001
0.41718003 -0.040900003 1.2270001
0.41951719 -0.040900003 1.2270001
0.42047906 -0.040766668 1.223
0.42280856 -0.040766668 1.223
0.42374763 -0.040633336 1.2190001
0.42432192 -0.04046667 1.2140001
0.42663431 -0.04046667 1.2140001
0.4289467 -0.04046667 1.2140001
0.4312591 -0.04046667 1.2140001
0.43357146 -0.04046667 1.2140001
0.43444762 -0.040333334 1.21
0.43675241 -0.040333334 1.21
0.43905714 -0.040333334 1.21
0.4399029 -0.040200002 1.2060001
0.44220003 -0.040200002 1.2060001
0.44449717 -0.040200002 1.2060001
0.44531238 -0.040066667 1.202
0.44760188 -0.040066667 1.202
0.44802001 -0.039900001 1.197
0.45030001 -0.039900001 1.197
0.45258 -0.039900001 1.197
0.45486 -0.039900001 1.197
0.45714 -0.039900001 1.197
0.45942003 -0.039900001 1.197
0.46169999 -0.039900001 1.197
0.46242955 -0.039766666 1.1930001
0.46470195 -0.039766666 1.1930001
0.46697432 -0.039766666 1.1930001
0.46924672 -0.039766666 1.1930001
0.47151908 -0.039766666 1.1930001
0.47538 -0.039900001 1.197
0.47766 -0.039900001 1.197
0.47994 -0.039900001 1.197
0.48222002 -0.039900001 1.197
0.49434 -0.039233334 1.177
0.49489433 -0.039100002 1.1730001
0.49712861 -0.039100002 1.1730001
0.49936292 -0.039100002 1.1730001
0.50159723 -0.039100002 1.1730001
0.50383151 -0.039100002 1.1730001
0.50606573 -0.039100002 1.1730001
0.50830001 -0.039100002 1.1730001
0.51053429 -0.039100002 1.1730001
0.51276863 -0.039100002 1.1730001
0.30571717 -0.041517146 1.3210001
0.30823335 -0.041517146 1.3210001
0.31074953 -0.041517146 1.3210001
0.31326574 -0.041517146 1.3210001
0.3145867 -0.041360006 1.3160001
0.31709334 -0.041360006 1.3160001
0.31838572 -0.041202862 1.3110001
0.31965908 -0.041045718 1.3060001
0.32091337 -0.040888574 1.3010001
0.32339147 -0.040888574 1.3010001
0.32461712 -0.04073143 1.296
0.3270857 -0.04073143 1.296
0.33082575 -0.040888574 1.3010001
0.33330384 -0.040888574 1.3010001
0.33578193 -0.040888574 1.3010001
0.33826002 -0.040888574 1.3010001
0.34683427 -0.04073143 1.296
0.34930286 -0.04073143 1.296
0.35484284 -0.039694287 1.263
0.35724857 -0.039694287 1.263
0.35965428 -0.039694287 1.263
0.36091334 -0.039568573 1.2590001
0.36331144 -0.039568573 1.2590001
0.36570954 -0.039568573 1.2590001
0.36810765 -0.039568573 1.2590001
0.36903429 -0.039411433 1.2540001
0.37142286 -0.039411433 1.2540001
0.37381142 -0.039411433 1.2540001
0.37619999 -0.039411433 1.2540001
0.37858859 -0.039411433 1.2540001
0.37824285 -0.039128572 1.245
0.38061428 -0.039128572 1.245
0.38298571 -0.039128572 1.245
0.38535714 -0.039128572 1.245
0.38772857 -0.039128572 1.245
0.3901 -0.039128572 1.245
0.39089525 -0.038971432 1.24
0.39325714 -0.038971432 1.24
0.39434287 -0.038845714 1.2360001
0.39541337 -0.038720001 1.2320001
0.39614573 -0.03856286 1.2270001
0.39848289 -0.03856286 1.2270001
0.40245336 -0.038720001 1.2320001
0.40480003 -0.038720001 1.2320001
0.40714669 -0.038720001 1.2320001
0.40783146 -0.03856286 1.2270001
0.41016859 -0.03856286 1.2270001
0.41250575 -0.03856286 1.2270001
0.4148429 -0.03856286 1.2270001
0.41718003 -0.03856286 1.2270001
0.41951719 -0.03856286 1.2270001
0.42047906 -0.038437143 1.223
0.42280856 -0.038437143 1.223
0.42513812 -0.038437143 1.223
0.42432192 -0.038154289 1.2140001
0.42663431 -0.038154289 1.2140001
0.4289467 -0.038154289 1.2140001
0.4312591 -0.038154289 1.2140001
0.43357146 -0.038154289 1.2140001
0.43444762 -0.038028572 1.21
0.43675241 -0.038028572 1.21
0.43905714 -0.038028572 1.21
0.4399029 -0.037902862 1.2060001
0.44220003 -0.037902862 1.2060001
0.44449717 -0.037902862 1.2060001
0.44531238 -0.037777144 1.202
0.44760188 -0.037777144 1.202
0.44989145 -0.037777144 1.202
0.45030001 -0.037620001 1.197
0.45258 -0.037620001 1.197
0.45486 -0.037620001 1.197
0.45714 -0.037620001 1.197
0.45942003 -0.037620001 1.197
0.46169999 -0.037620001 1.197
0.46398002 -0.037620001 1.197
0.46625999 -0.037620001 1.197
0.46697432 -0.037494287 1.1930001
0.46924672 -0.037494287 1.1930001
0.47151908 -0.037494287 1.1930001
0.47379145 -0.037494287 1.1930001
0.47606385 -0.037494287 1.1930001
0.47994 -0.037620001 1.197
0.48222002 -0.037620001 1.197
0.49266002 -0.036865719 1.1730001
0.49320668 -0.036739998 1.169
0.49543333 -0.036739998 1.169
0.49766001 -0.036739998 1.169
0.49988669 -0.036739998 1.169
0.50211334 -0.036739998 1.169
0.50606573 -0.036865719 1.1730001
0.50830001 -0.036865719 1.1730001
0.51053429 -0.036865719 1.1730001
0.51276863 -0.036865719 1.1730001
0.30571717 -0.039000954 1.3210001
0.30823335 -0.039000954 1.3210001
0.31074953 -0.039000954 1.3210001
0.31326574 -0.039000954 1.3210001
0.31578192 -0.039000954 1.3210001
0.31709334 -0.038853336 1.3160001
0.31838572 -0.038705718 1.3110001
0.32088289 -0.038705718 1.3110001
0.32214668 -0.038558099 1.3060001
0.32339147 -0.038410481 1.3010001
0.32461712 -0.038262855 1.296
0.3270857 -0.038262855 1.296
0.33082575 -0.038410481 1.3010001
0.33330384 -0.038410481 1.3010001
0.33578193 -0.038410481 1.3010001
0.34549618 -0.038115237 1.291
0.34795523 -0.038115237 1.291
0.35041428 -0.038115237 1.291
0.35287333 -0.038115237 1.291
0.35533237 -0.038115237 1.291
0.35724857 -0.037288573 1.263
0.35965428 -0.037288573 1.263
0.36091334 -0.037170477 1.2590001
0.36331144 -0.037170477 1.2590001
0.36570954 -0.037170477 1.2590001
0.36810765 -0.037170477 1.2590001
0.37050572 -0.037170477 1.2590001
0.37290382 -0.037170477 1.2590001
0.37530193 -0.037170477 1.2590001
0.37770003 -0.037170477 1.2590001
0.3800981 -0.037170477 1.2590001
0.38097718 -0.037022859 1.2540001
0.38183716 -0.036875241 1.2490001
0.38298571 -0.036757145 1.245
0.38535714 -0.036757145 1.245
0.38772857 -0.036757145 1.245
0.3901 -0.036757145 1.245
0.39089525 -0.036609523 1.24
0.39325714 -0.036609523 1.24
0.39434287 -0.036491431 1.2360001
0.39541337 -0.03637334 1.2320001
0.39614573 -0.036225718 1.2270001
0.4001067 -0.03637334 1.2320001
0.40245336 -0.03637334 1.2320001
0.40480003 -0.03637334 1.2320001
0.40714669 -0.03637334 1.2320001
0.40949339 -0.03637334 1.2320001
0.41184002 -0.03637334 1.2320001
0.41418669 -0.03637334 1.2320001
0.4148429 -0.036225718 1.2270001
0.41718003 -0.036225718 1.2270001
0.41951719 -0.036225718 1.2270001
0.42047906 -0.036107622 1.223
0.42280856 -0.036107622 1.223
0.42513812 -0.036107622 1.223
0.42606956 -0.035989527 1.2190001
0.42839146 -0.035989527 1.2190001
0.4289467 -0.035841908 1.2140001
0.4312591 -0.035841908 1.2140001
0.43357146 -0.035841908 1.2140001
0.43588385 -0.035841908 1.2140001
0.43675241 -0.035723813 1.21
0.43905714 -0.035723813 1.21
0.4399029 -0.035605714 1.2060001
0.44220003 -0.035605714 1.2060001
0.44302288 -0.035487618 1.202
0.44531238 -0.035487618 1.202
0.44760188 -0.035487618 1.202
0.44802001 -0.03534 1.197
0.45030001 -0.03534 1.197
0.45258 -0.03534 1.197
0.45486 -0.03534 1.197
0.45714 -0.03534 1.197
0.45942003 -0.03534 1.197
0.46169999 -0.03534 1.197
0.46398002 -0.03534 1.197
0.46625999 -0.03534 1.197
0.46697432 -0.035221905 1.1930001
0.46924672 -0.035221905 1.1930001
0.47151908 -0.035221905 1.1930001
0.47379145 -0.035221905 1.1930001
0.47606385 -0.035221905 1.1930001
0.47833622 -0.035221905 1.1930001
0.48060861 -0.035221905 1.1930001
0.49266002 -0.034631431 1.1730001
0.49320668 -0.034513336 1.169
0.49543333 -0.034513336 1.169
0.49766001 -0.034513336 1.169
0.49817622 -0.03439524 1.1650001
0.50211334 -0.034513336 1.169
0.50606573 -0.034631431 1.1730001
0.50830001 -0.034631431 1.1730001
0.51053429 -0.034631431 1.1730001
0.51276863 -0.034631431 1.1730001
0.30687431 -0.03662286 1.3260001
0.30823335 -0.036484763 1.3210001
0.31074953 -0.036484763 1.3210001
0.31326574 -0.036484763 1.3210001
0.31578192 -0.036484763 1.3210001
0.31709334 -0.036346667 1.3160001
0.31960002 -0.036346667 1.3160001
0.32088289 -0.036208577 1.3110001
0.32338002 -0.036208577 1.3110001
0.32339147 -0.035932384 1.3010001
0.32586953 -0.035932384 1.3010001
0.32834765 -0.035932384 1.3010001
0.33082575 -0.035932384 1.3010001
0.33458477 -0.036070481 1.3060001
0.3370724 -0.036070481 1.3060001
0.34683427 -0.035794284 1.296
0.34930286 -0.035794284 1.296
0.35177144 -0.035794284 1.296
0.35424 -0.035794284 1.296
0.35670859 -0.035794284 1.296
0.35917711 -0.035794284 1.296
0.35965428 -0.034882855 1.263
0.36205998 -0.034882855 1.263
0.36446571 -0.034882855 1.263
0.36687142 -0.034882855 1.263
0.36927715 -0.034882855 1.263
0.37168285 -0.034882855 1.263
0.37408856 -0.034882855 1.263
0.37649429 -0.034882855 1.263
0.37889999 -0.034882855 1.263
0.3800981 -0.034772381 1.2590001
0.38097718 -0.034634285 1.2540001
0.38183716 -0.034496192 1.2490001
0.38421622 -0.034496192 1.2490001
0.38659525 -0.034496192 1.2490001
0.38772857 -0.034385715 1.245
0.3901 -0.034385715 1.245
0.39089525 -0.034247618 1.24
0.39325714 -0.034247618 1.24
0.39434287 -0.034137145 1.2360001
0.39669716 -0.034137145 1.2360001
0.39614573 -0.033888575 1.2270001
0.4001067 -0.034026671 1.2320001
0.40245336 -0.034026671 1.2320001
0.40480003 -0.034026671 1.2320001
0.40714669 -0.034026671 1.2320001
0.40949339 -0.034026671 1.2320001
0.41184002 -0.034026671 1.2320001
0.41418669 -0.034026671 1.2320001
0.4148429 -0.033888575 1.2270001
0.41718003 -0.033888575 1.2270001
0.41951719 -0.033888575 1.2270001
0.42185432 -0.033888575 1.2270001
0.42280856 -0.033778097 1.223
0.42513812 -0.033778097 1.223
0.42606956 -0.03366762 1.2190001
0.42839146 -0.03366762 1.2190001
0.4289467 -0.033529524 1.2140001
0.4312591 -0.033529524 1.2140001
0.43357146 -0.033529524 1.2140001
0.43588385 -0.033529524 1.2140001
0.43675241 -0.033419047 1.21
0.43905714 -0.033419047 1.21
0.4399029 -0.033308573 1.2060001
0.44220003 -0.033308573 1.2060001
0.44449717 -0.033308573 1.2060001
0.44531238 -0.033198096 1.202
0.44760188 -0.033198096 1.202
0.44802001 -0.033059999 1.197
0.45030001 -0.033059999 1.197
0.45258 -0.033059999 1.197
0.45486 -0.033059999 1.197
0.45714 -0.033059999 1.197
0.45942003 -0.033059999 1.197
0.46169999 -0.033059999 1.197
0.46398002 -0.033059999 1.197
0.46625999 -0.033059999 1.197
0.46854001 -0.033059999 1.197
0.46924672 -0.032949526 1.1930001
0.47151908 -0.032949526 1.1930001
0.47379145 -0.032949526 1.1930001
0.47606385 -0.032949526 1.1930001
0.47833622 -0.032949526 1.1930001
0.48060861 -0.032949526 1.1930001
0.49266002 -0.032397144 1.1730001
0.49489433 -0.032397144 1.1730001
0.49712861 -0.032397144 1.1730001
0.49766001 -0.032286666 1.169
0.49988669 -0.032286666 1.169
0.50211334 -0.032286666 1.169
0.50606573 -0.032397144 1.1730001
0.50830001 -0.032397144 1.1730001
0.51053429 -0.032397144 1.1730001
0.30687431 -0.034097143 1.3260001
0.30823335 -0.033968575 1.3210001
0.31074953 -0.033968575 1.3210001
0.31208003 -0.033840001 1.3160001
0.3145867 -0.033840001 1.3160001
0.31709334 -0.033840001 1.3160001
0.31960002 -0.033840001 1.3160001
0.32088289 -0.03371143 1.3110001
0.32338002 -0.03371143 1.3110001
0.32463431 -0.033582862 1.3060001
0.32586953 -0.033454288 1.3010001
0.32834765 -0.033454288 1.3010001
0.33082575 -0.033454288 1.3010001
0.33458477 -0.033582862 1.3060001
0.3370724 -0.033582862 1.3060001
0.34683427 -0.033325713 1.296
0.34930286 -0.033325713 1.296
0.35177144 -0.033325713 1.296
0.35287333 -0.033197142 1.291
0.35533237 -0.033197142 1.291
0.35668287 -0.033094287 1.2870001
0.35913429 -0.033094287 1.2870001
0.36205998 -0.032477144 1.263
0.36590856 -0.032605715 1.268
0.36687142 -0.032477144 1.263
0.36927715 -0.032477144 1.263
0.37315428 -0.032605715 1.268
0.37408856 -0.032477144 1.263
0.37649429 -0.032477144 1.263
0.37889999 -0.032477144 1.263
0.3800981 -0.032374285 1.2590001
0.37945813 -0.032117147 1.2490001
0.38183716 -0.032117147 1.2490001
0.38421622 -0.032117147 1.2490001
0.38535714 -0.032014288 1.245
0.38772857 -0.032014288 1.245
0.38853332 -0.031885713 1.24
0.39089525 -0.031885713 1.24
0.39325714 -0.031885713 1.24
0.39561903 -0.031885713 1.24
0.39669716 -0.031782858 1.2360001
0.39776003 -0.031680003 1.2320001
0.40140572 -0.031782858 1.2360001
0.40245336 -0.031680003 1.2320001
0.40480003 -0.031680003 1.2320001
0.40714669 -0.031680003 1.2320001
0.40949339 -0.031680003 1.2320001
0.41184002 -0.031680003 1.2320001
0.41418669 -0.031680003 1.2320001
0.4148429 -0.031551428 1.2270001
0.41718003 -0.031551428 1.2270001
0.41951719 -0.031551428 1.2270001
0.42185432 -0.031551428 1.2270001
0.42280856 -0.031448569 1.223
0.42513812 -0.031448569 1.223
0.42606956 -0.031345718 1.2190001
0.42839146 -0.031345718 1.2190001
0.4289467 -0.031217147 1.2140001
0.4312591 -0.031217147 1.2140001
0.43357146 -0.031217147 1.2140001
0.43444762 -0.031114288 1.21
0.43675241 -0.031114288 1.21
0.43905714 -0.031114288 1.21
0.44136193 -0.031114288 1.21
0.44220003 -0.031011432 1.2060001
0.44449717 -0.031011432 1.2060001
0.4467943 -0.031011432 1.2060001
0.44760188 -0.030908573 1.202
0.44989145 -0.030908573 1.202
0.45030001 -0.030780001 1.197
0.45258 -0.030780001 1.197
0.45486 -0.030780001 1.197
0.45714 -0.030780001 1.197
0.45942003 -0.030780001 1.197
0.46169999 -0.030780001 1.197
0.46398002 -0.030780001 1.197
0.46625999 -0.030780001 1.197
0.46854001 -0.030780001 1.197
0.46924672 -0.030677145 1.1930001
0.47151908 -0.030677145 1.1930001
0.47379145 -0.030677145 1.1930001
0.47606385 -0.030677145 1.1930001
0.47833622 -0.030677145 1.1930001
0.48060861 -0.030677145 1.1930001
0.49434 -0.030265715 1.177
0.49658191 -0.030265715 1.177
0.49882382 -0.030265715 1.177
0.49766001 -0.030060001 1.169
0.49988669 -0.030060001 1.169
0.50383151 -0.03016286 1.1730001
0.50606573 -0.03016286 1.1730001
0.50830001 -0.03016286 1.1730001
0.51053429 -0.03016286 1.1730001
0.30687431 -0.031571429 1.3260001
0.30940002 -0.031571429 1.3260001
0.31074953 -0.031452384 1.3210001
0.31326574 -0.031452384 1.3210001
0.3145867 -0.031333335 1.3160001
0.31709334 -0.031333335 1.3160001
0.31960002 -0.031333335 1.3160001
0.32088289 -0.031214288 1.3110001
0.32338002 -0.031214288 1.3110001
0.32463431 -0.031095238 1.3060001
0.32586953 -0.030976191 1.3010001
0.32834765 -0.030976191 1.3010001
0.33082575 -0.030976191 1.3010001
0.33330384 -0.030976191 1.3010001
0.33578193 -0.030976191 1.3010001
0.34216002 -0.031333335 1.3160001
0.34466669 -0.031333335 1.3160001
0.34585431 -0.031214288 1.3110001
0.34835148 -0.031214288 1.3110001
0.34951049 -0.031095238 1.3060001
0.34930286 -0.030857144 1.296
0.35177144 -0.030857144 1.296
0.35287333 -0.030738097 1.291
0.35670859 -0.030857144 1.296
0.35917711 -0.030857144 1.296
0.3616457 -0.030857144 1.296
0.36446571 -0.030071428 1.263
0.36687142 -0.030071428 1.263
0.36927715 -0.030071428 1.263
0.37168285 -0.030071428 1.263
0.37408856 -0.030071428 1.263
0.37649429 -0.030071428 1.263
0.37889999 -0.030071428 1.263
0.3800981 -0.029976193 1.2590001
0.37945813 -0.029738097 1.2490001
0.38183716 -0.029738097 1.2490001
0.38421622 -0.029738097 1.2490001
0.38659525 -0.029738097 1.2490001
0.38772857 -0.029642858 1.245
0.3901 -0.029642858 1.245
0.39089525 -0.029523809 1.24
0.39325714 -0.029523809 1.24
0.39561903 -0.029523809 1.24
0.39798096 -0.029523809 1.24
0.39776003 -0.029333336 1.2320001
0.40140572 -0.029428573 1.2360001
0.40245336 -0.029333336 1.2320001
0.40480003 -0.029333336 1.2320001
0.40714669 -0.029333336 1.2320001
0.40949339 -0.029333336 1.2320001
0.41184002 -0.029333336 1.2320001
0.41418669 -0.029333336 1.2320001
0.41653338 -0.029333336 1.2320001
0.41718003 -0.029214289 1.2270001
0.41951719 -0.029214289 1.2270001
0.42185432 -0.029214289 1.2270001
0.42419145 -0.029214289 1.2270001
0.4265286 -0.029214289 1.2270001
0.42746761 -0.029119048 1.223
0.42979714 -0.029119048 1.223
0.43071336 -0.029023811 1.2190001
0.43303528 -0.029023811 1.2190001
0.43357146 -0.028904764 1.2140001
0.43588385 -0.028904764 1.2140001
0.43819624 -0.028904764 1.2140001
0.43905714 -0.028809523 1.21
0.4399029 -0.028714286 1.2060001
0.44220003 -0.028714286 1.2060001
0.44449717 -0.028714286 1.2060001
0.44531238 -0.028619049 1.202
0.44760188 -0.028619049 1.202
0.44802001 -0.0285 1.197
0.45030001 -0.0285 1.197
0.45258 -0.0285 1.197
0.45486 -0.0285 1.197
0.45714 -0.0285 1.197
0.45942003 -0.0285 1.197
0.46169999 -0.0285 1.197
0.46398002 -0.0285 1.197
0.46625999 -0.0285 1.197
0.46854001 -0.0285 1.197
0.46924672 -0.028404765 1.1930001
0.47151908 -0.028404765 1.1930001
0.47379145 -0.028404765 1.1930001
0.47446764 -0.028309524 1.189
0.47673237 -0.028309524 1.189
0.47899714 -0.028309524 1.189
0.49602005 -0.02811905 1.1810001
0.49658191 -0.028023811 1.177
0.49882382 -0.028023811 1.177
0.49936292 -0.027928574 1.1730001
0.50159723 -0.027928574 1.1730001
0.50554955 -0.028023811 1.177
0.50779146 -0.028023811 1.177
0.51003337 -0.028023811 1.177
0.51053429 -0.027928574 1.1730001
0.51451719 -0.028023811 1.177
0.51851529 -0.02811905 1.1810001
0.52252859 -0.028214287 1.1850001
0.52478576 -0.028214287 1.1850001
0.30687431 -0.029045716 1.3260001
0.30823335 -0.028936192 1.3210001
0.31074953 -0.028936192 1.3210001
0.31208003 -0.028826667 1.3160001
0.3145867 -0.028826667 1.3160001
0.31709334 -0.028826667 1.3160001
0.31838572 -0.028717143 1.3110001
0.32088289 -0.028717143 1.3110001
0.32338002 -0.028717143 1.3110001
0.32463431 -0.02860762 1.3060001
0.32586953 -0.028498096 1.3010001
0.33087146 -0.028717143 1.3110001
0.3333686 -0.028717143 1.3110001
0.33586574 -0.028717143 1.3110001
0.3383629 -0.028717143 1.3110001
0.34216002 -0.028826667 1.3160001
0.34335718 -0.028717143 1.3110001
0.34585431 -0.028717143 1.3110001
0.34835148 -0.028717143 1.3110001
0.35084859 -0.028717143 1.3110001
0.35065052 -0.028498096 1.3010001
0.35177144 -0.028388571 1.296
0.35287333 -0.028279047 1.291
0.35533237 -0.028279047 1.291
0.35779142 -0.028279047 1.291
0.3616457 -0.028388571 1.296
0.36120859 -0.027972383 1.2770001
0.36364096 -0.027972383 1.2770001
0.36590856 -0.027775237 1.268
0.3683238 -0.027775237 1.268
0.36927715 -0.027665714 1.263
0.37168285 -0.027665714 1.263
0.37408856 -0.027665714 1.263
0.37649429 -0.027665714 1.263
0.37889999 -0.027665714 1.263
0.3800981 -0.027578095 1.2590001
0.38097718 -0.027468571 1.2540001
0.38336575 -0.027468571 1.2540001
0.38421622 -0.027359048 1.2490001
0.38659525 -0.027359048 1.2490001
0.38772857 -0.027271429 1.245
0.3901 -0.027271429 1.245
0.39089525 -0.027161906 1.24
0.39325714 -0.027161906 1.24
0.39561903 -0.027161906 1.24
0.39669716 -0.027074287 1.2360001
0.39776003 -0.026986668 1.2320001
0.40140572 -0.027074287 1.2360001
0.40245336 -0.026986668 1.2320001
0.40480003 -0.026986668 1.2320001
0.40714669 -0.026986668 1.2320001
0.40949339 -0.026986668 1.2320001
0.41184002 -0.026986668 1.2320001
0.41418669 -0.026986668 1.2320001
0.41653338 -0.026986668 1.2320001
0.41888002 -0.026986668 1.2320001
0.41951719 -0.026877144 1.2270001
0.42185432 -0.026877144 1.2270001
0.42419145 -0.026877144 1.2270001
0.4265286 -0.026877144 1.2270001
0.42746761 -0.026789526 1.223
0.42979714 -0.026789526 1.223
0.43071336 -0.026701907 1.2190001
0.43303528 -0.026701907 1.2190001
0.43357146 -0.026592383 1.2140001
0.43588385 -0.026592383 1.2140001
0.43675241 -0.026504762 1.21
0.43905714 -0.026504762 1.21
0.44136193 -0.026504762 1.21
0.44366667 -0.026504762 1.21
0.44449717 -0.026417146 1.2060001
0.4467943 -0.026417146 1.2060001
0.44760188 -0.026329523 1.202
0.44989145 -0.026329523 1.202
0.45030001 -0.026219999 1.197
0.45258 -0.026219999 1.197
0.45486 -0.026219999 1.197
0.45714 -0.026219999 1.197
0.45942003 -0.026219999 1.197
0.46169999 -0.026219999 1.197
0.46398002 -0.026219999 1.197
0.46625999 -0.026219999 1.197
0.46697432 -0.026132382 1.1930001
0.46924672 -0.026132382 1.1930001
0.47151908 -0.026132382 1.1930001
0.47220287 -0.026044762 1.189
0.47446764 -0.026044762 1.189
0.47673237 -0.026044762 1.189
0.47899714 -0.026044762 1.189
0.49602005 -0.025869526 1.1810001
0.49658191 -0.025781905 1.177
0.49882382 -0.025781905 1.177
0.49936292 -0.025694286 1.1730001
0.50159723 -0.025694286 1.1730001
0.50383151 -0.025694286 1.1730001
0.50606573 -0.025694286 1.1730001
0.50830001 -0.025694286 1.1730001
0.51227528 -0.025781905 1.177
0.51451719 -0.025781905 1.177
0.51851529 -0.025869526 1.1810001
0.52252859 -0.025957143 1.1850001
0.52478576 -0.025957143 1.1850001
0.30823335 -0.026420001 1.3210001
0.31074953 -0.026420001 1.3210001
0.31326574 -0.026420001 1.3210001
0.3145867 -0.026320001 1.3160001
0.31709334 -0.026320001 1.3160001
0.31960002 -0.026320001 1.3160001
0.32210669 -0.026320001 1.3160001
0.32461336 -0.026320001 1.3160001
0.32587716 -0.026220001 1.3110001
0.3283743 -0.026220001 1.3110001
0.33087146 -0.026220001 1.3110001
0.33464003 -0.026320001 1.3160001
0.3371467 -0.026320001 1.3160001
0.33965334 -0.026320001 1.3160001
0.34086001 -0.026220001 1.3110001
0.34335718 -0.026220001 1.3110001
0.34585431 -0.026220001 1.3110001
0.34835148 -0.026220001 1.3110001
0.35084859 -0.026220001 1.3110001
0.35065052 -0.026020002 1.3010001
0.35177144 -0.02592 1.296
0.35287333 -0.02582 1.291
0.35423145 -0.025739999 1.2870001
0.35668287 -0.025739999 1.2870001
0.35913429 -0.025739999 1.2870001
0.36018097 -0.02564 1.2820001
0.36120859 -0.025540002 1.2770001
0.36364096 -0.025540002 1.2770001
0.36607334 -0.025540002 1.2770001
0.36706287 -0.025440002 1.2720001
0.3683238 -0.025359999 1.268
0.37073904 -0.025359999 1.268
0.37315428 -0.025359999 1.268
0.37408856 -0.02526 1.263
0.37649429 -0.02526 1.263
0.37889999 -0.02526 1.263
0.3800981 -0.025180001 1.2590001
0.38097718 -0.025080001 1.2540001
0.38336575 -0.025080001 1.2540001
0.38421622 -0.024980001 1.2490001
0.38659525 -0.024980001 1.2490001
0.38772857 -0.024900001 1.245
0.3901 -0.024900001 1.245
0.39089525 -0.024800001 1.24
0.39325714 -0.024800001 1.24
0.39561903 -0.024800001 1.24
0.39669716 -0.02472 1.2360001
0.39776003 -0.024640001 1.2320001
0.40140572 -0.02472 1.2360001
0.40376002 -0.02472 1.2360001
0.40480003 -0.024640001 1.2320001
0.40714669 -0.024640001 1.2320001
0.40949339 -0.024640001 1.2320001
0.41184002 -0.024640001 1.2320001
0.41418669 -0.024640001 1.2320001
0.41653338 -0.024640001 1.2320001
0.41718003 -0.024540002 1.2270001
0.41951719 -0.024540002 1.2270001
0.42185432 -0.024540002 1.2270001
0.42419145 -0.024540002 1.2270001
0.4265286 -0.024540002 1.2270001
0.42746761 -0.024460001 1.223
0.42979714 -0.024460001 1.223
0.43071336 -0.024380002 1.2190001
0.43303528 -0.024380002 1.2190001
0.43357146 -0.02428 1.2140001
0.43588385 -0.02428 1.2140001
0.43819624 -0.02428 1.2140001
0.4405086 -0.02428 1.2140001
0.44136193 -0.0242 1.21
0.44366667 -0.0242 1.21
0.44597143 -0.0242 1.21
0.4467943 -0.024120001 1.2060001
0.44909143 -0.024120001 1.2060001
0.44989145 -0.024040001 1.202
0.45218095 -0.024040001 1.202
0.45258 -0.023940001 1.197
0.45486 -0.023940001 1.197
0.45714 -0.023940001 1.197
0.45942003 -0.023940001 1.197
0.46169999 -0.023940001 1.197
0.46398002 -0.023940001 1.197
0.46625999 -0.023940001 1.197
0.46697432 -0.023860002 1.1930001
0.46924672 -0.023860002 1.1930001
0.47151908 -0.023860002 1.1930001
0.47379145 -0.023860002 1.1930001
0.47446764 -0.023779999 1.189
0.47833622 -0.023860002 1.1930001
0.48060861 -0.023860002 1.1930001
0.4865267 -0.02338 1.169
0.48875338 -0.02338 1.169
0.49434 -0.023540001 1.177
0.49658191 -0.023540001 1.177
0.49882382 -0.023540001 1.177
0.50106573 -0.023540001 1.177
