# .PCD v0.7 - Point Cloud Data file format
VERSION 0.7
FIELDS x y z
SIZE 4 4 4
TYPE F F F
COUNT 1 1 1
WIDTH 876
HEIGHT 1
VIEWPOINT 0 0 0 1 0 0 0
POINTS 876
DATA ascii
0.71050578 0.083831429 1.4430001
0.71325433 0.083831429 1.4430001
0.71070004 0.086940005 1.4490001
0.71050578 0.086580001 1.4430001
0.71325433 0.086580001 1.4430001
0.71302569 0.086220004 1.437
0.71875143 0.086580001 1.4430001
0.72149998 0.086580001 1.4430001
0.71380287 0.090442859 1.4610001
0.71070004 0.089700006 1.4490001
0.71050578 0.08932858 1.4430001
0.71325433 0.08932858 1.4430001
0.71302569 0.088957138 1.437
0.71875143 0.08932858 1.4430001
0.71850002 0.088957138 1.437
0.72424865 0.08932858 1.4430001
0.7269972 0.08932858 1.4430001
0.71473908 0.095203809 1.4920001
0.71758097 0.095203809 1.4920001
0.71102005 0.093225725 1.4610001
0.71087146 0.092842855 1.455
0.71070004 0.092460006 1.4490001
0.71050578 0.092077151 1.4430001
0.71325433 0.092077151 1.4430001
0.71302569 0.091694281 1.437
0.71576285 0.091694281 1.437
0.71850002 0.091694281 1.437
0.72123712 0.091694281 1.437
0.72397429 0.091694281 1.437
0.69849712 0.098965712 1.506
0.70136571 0.098965712 1.506
0.70704001 0.099360004 1.5120001
0.70710284 0.098965712 1.506
0.70667148 0.09850572 1.4990001
0.70952672 0.09850572 1.4990001
0.71238196 0.09850572 1.4990001
0.71189719 0.098045722 1.4920001
0.71473908 0.098045722 1.4920001
0.71758097 0.098045722 1.4920001
0.71752572 0.097651429 1.4860001
0.71114576 0.096402861 1.4670001
0.71394008 0.096402861 1.4670001
0.71087146 0.095614292 1.455
0.71070004 0.095220007 1.4490001
0.71050578 0.094825722 1.4430001
0.71325433 0.094825722 1.4430001
0.71302569 0.09443143 1.437
0.71576285 0.09443143 1.437
0.71850002 0.09443143 1.437
0.71822578 0.094037145 1.4310001
0.7209515 0.094037145 1.4310001
0.69849712 0.10183429 1.506
0.70136571 0.10183429 1.506
0.7042343 0.10183429 1.506
0.70381618 0.10136096 1.4990001
0.70337147 0.10088763 1.4920001
0.70621336 0.10088763 1.4920001
0.7090553 0.10088763 1.4920001
0.71189719 0.10088763 1.4920001
0.71473908 0.10088763 1.4920001
0.71469527 0.10048191 1.4860001
0.71752572 0.10048191 1.4860001
0.71114576 0.099197149 1.4670001
0.71102005 0.098791428 1.4610001
0.71087146 0.098385714 1.455
0.71070004 0.097980008 1.4490001
0.71641433 0.098385714 1.455
0.71622008 0.097980008 1.4490001
0.71302569 0.097168572 1.437
0.71576285 0.097168572 1.437
0.71850002 0.097168572 1.437
0.72123712 0.097168572 1.437
0.72397429 0.097168572 1.437
0.69840008 0.10512 1.5120001
0.69849712 0.10470286 1.506
0.70136571 0.10470286 1.506
0.7042343 0.10470286 1.506
0.70381618 0.10421619 1.4990001
0.70667148 0.10421619 1.4990001
0.70621336 0.10372953 1.4920001
0.7090553 0.10372953 1.4920001
0.71189719 0.10372953 1.4920001
0.71473908 0.10372953 1.4920001
0.71758097 0.10372953 1.4920001
0.71752572 0.10331238 1.4860001
0.71405429 0.10240858 1.473
0.71394008 0.10199144 1.4670001
0.71380287 0.10157429 1.4610001
0.70775717 0.10032286 1.4430001
0.70755142 0.099905714 1.437
0.71622008 0.10074001 1.4490001
0.71302569 0.099905714 1.437
0.71875143 0.10032286 1.4430001
0.71850002 0.099905714 1.437
0.72123712 0.099905714 1.437
0.72397429 0.099905714 1.437
0.70232576 0.11042858 1.5460001
0.69888383 0.10942857 1.5320001
0.7018019 0.10942857 1.5320001
0.69874001 0.1085 1.5190001
0.69840008 0.10800001 1.5120001
0.70128006 0.10800001 1.5120001
0.70136571 0.10757143 1.506
0.7042343 0.10757143 1.506
0.70710284 0.10757143 1.506
0.70667148 0.10707143 1.4990001
0.70621336 0.10657144 1.4920001
0.7090553 0.10657144 1.4920001
0.71189719 0.10657144 1.4920001
0.71473908 0.10657144 1.4920001
0.71469527 0.10614286 1.4860001
0.71752572 0.10614286 1.4860001
0.71114576 0.10478573 1.4670001
0.71102005 0.10435715 1.4610001
0.71087146 0.10392857 1.455
0.70775717 0.10307144 1.4430001
0.71050578 0.10307144 1.4430001
0.71325433 0.10307144 1.4430001
0.71600288 0.10307144 1.4430001
0.71576285 0.10264286 1.437
0.71850002 0.10264286 1.437
0.72123712 0.10264286 1.437
0.72397429 0.10264286 1.437
0.70232576 0.11337334 1.5460001
0.70207715 0.11286 1.539
0.7018019 0.11234667 1.5320001
0.70150006 0.11183334 1.5250001
0.70163333 0.11139334 1.5190001
0.70452672 0.11139334 1.5190001
0.70416003 0.11088 1.5120001
0.70704001 0.11088 1.5120001
0.70710284 0.11044 1.506
0.70667148 0.10992667 1.4990001
0.70621336 0.10941334 1.4920001
0.7090553 0.10941334 1.4920001
0.70903432 0.10897334 1.4860001
0.71473908 0.10941334 1.4920001
0.71469527 0.10897334 1.4860001
0.71752572 0.10897334 1.4860001
0.70823717 0.10714 1.4610001
0.71102005 0.10714 1.4610001
0.71087146 0.1067 1.455
0.70775717 0.10582001 1.4430001
0.71050578 0.10582001 1.4430001
0.71325433 0.10582001 1.4430001
0.71600288 0.10582001 1.4430001
0.71875143 0.10582001 1.4430001
0.72149998 0.10582001 1.4430001
0.72123712 0.10538 1.437
0.72397429 0.10538 1.437
0.69705719 0.11842477 1.5740001
0.7000553 0.11842477 1.5740001
0.69992667 0.11789809 1.567
0.6997714 0.11737143 1.5600001
0.70274287 0.11737143 1.5600001
0.70254767 0.11684477 1.5530001
0.70232576 0.11631811 1.5460001
0.70207715 0.11579143 1.539
0.7018019 0.11526477 1.5320001
0.70150006 0.1147381 1.5250001
0.70440483 0.1147381 1.5250001
0.70452672 0.11428667 1.5190001
0.70416003 0.11376 1.5120001
0.70704001 0.11376 1.5120001
0.70710284 0.11330858 1.506
0.70667148 0.11278191 1.4990001
0.70621336 0.11225525 1.4920001
0.7090553 0.11225525 1.4920001
0.70903432 0.11180381 1.4860001
0.71186477 0.11180381 1.4860001
0.71469527 0.11180381 1.4860001
0.71462858 0.11135238 1.48
0.71744764 0.11135238 1.48
0.71102005 0.10992286 1.4610001
0.71966577 0.11082572 1.473
0.71070004 0.10902001 1.4490001
0.71936858 0.10992286 1.4610001
0.71325433 0.10856858 1.4430001
0.71600288 0.10856858 1.4430001
0.72472858 0.10947143 1.455
0.72750002 0.10947143 1.455
0.73027146 0.10947143 1.455
0.69462007 0.12258001 1.5890001
0.69413435 0.12196286 1.5810001
0.69714576 0.12196286 1.5810001
0.69705719 0.12142286 1.5740001
0.69694191 0.12088286 1.567
0.69992667 0.12088286 1.567
0.6997714 0.12034287 1.5600001
0.70274287 0.12034287 1.5600001
0.69938099 0.11926287 1.5460001
0.70232576 0.11926287 1.5460001
0.70207715 0.11872286 1.539
0.7018019 0.11818286 1.5320001
0.70150006 0.11764286 1.5250001
0.70440483 0.11764286 1.5250001
0.70452672 0.11718 1.5190001
0.70416003 0.11664001 1.5120001
0.7042343 0.11617714 1.506
0.70381618 0.11563715 1.4990001
0.70667148 0.11563715 1.4990001
0.70621336 0.11509714 1.4920001
0.7090553 0.11509714 1.4920001
0.70903432 0.11463429 1.4860001
0.71473908 0.11509714 1.4920001
0.71469527 0.11463429 1.4860001
0.71752572 0.11463429 1.4860001
0.71744764 0.11417143 1.48
0.71394008 0.11316858 1.4670001
0.71380287 0.11270572 1.4610001
0.71952862 0.11316858 1.4670001
0.72232294 0.11316858 1.4670001
0.71622008 0.11178001 1.4490001
0.72493428 0.11270572 1.4610001
0.72472858 0.11224286 1.455
0.72750002 0.11224286 1.455
0.73027146 0.11224286 1.455
0.68647146 0.13098191 1.6570001
0.68962765 0.13098191 1.6570001
0.67982286 0.12853144 1.626
0.68292004 0.12853144 1.626
0.68852669 0.12671334 1.603
0.68856001 0.12616 1.5960001
0.68856668 0.12560667 1.5890001
0.68811142 0.12497429 1.5810001
0.69462007 0.12560667 1.5890001
0.69413435 0.12497429 1.5810001
0.69714576 0.12497429 1.5810001
0.69705719 0.12442096 1.5740001
0.69694191 0.12386762 1.567
0.69679999 0.12331429 1.5600001
0.6997714 0.12331429 1.5600001
0.69958955 0.12276095 1.5530001
0.69938099 0.12220763 1.5460001
0.70232576 0.12220763 1.5460001
0.70207715 0.12165429 1.539
0.7018019 0.12110095 1.5320001
0.70150006 0.12054762 1.5250001
0.70440483 0.12054762 1.5250001
0.70452672 0.12007333 1.5190001
0.70416003 0.11952001 1.5120001
0.7042343 0.11904571 1.506
0.70381618 0.11849239 1.4990001
0.70667148 0.11849239 1.4990001
0.70621336 0.11793905 1.4920001
0.7090553 0.11793905 1.4920001
0.71189719 0.11793905 1.4920001
0.71473908 0.11793905 1.4920001
0.71469527 0.11746477 1.4860001
0.71752572 0.11746477 1.4860001
0.72035623 0.11746477 1.4860001
0.71394008 0.11596286 1.4670001
0.71673435 0.11596286 1.4670001
0.71364284 0.11501429 1.455
0.72232294 0.11596286 1.4670001
0.71622008 0.11454001 1.4490001
0.72493428 0.11548858 1.4610001
0.72771716 0.11548858 1.4610001
0.73050004 0.11548858 1.4610001
0.68647146 0.13413809 1.6570001
0.68962765 0.13413809 1.6570001
0.67982286 0.13162857 1.626
0.68292004 0.13162857 1.626
0.68264186 0.13098095 1.618
0.68572384 0.13098095 1.618
0.68880576 0.13098095 1.618
0.68547332 0.12976667 1.603
0.68852669 0.12976667 1.603
0.68856001 0.1292 1.5960001
0.68856668 0.12863334 1.5890001
0.68811142 0.12798572 1.5810001
0.69112289 0.12798572 1.5810001
0.68798763 0.12685239 1.567
0.69405913 0.12741905 1.5740001
0.69395715 0.12685239 1.567
0.69382858 0.12628572 1.5600001
0.69679999 0.12628572 1.5600001
0.69663149 0.12571906 1.5530001
0.69643623 0.12515238 1.5460001
0.69938099 0.12515238 1.5460001
0.69914573 0.12458572 1.539
0.70207715 0.12458572 1.539
0.7018019 0.12401905 1.5320001
0.70150006 0.1234524 1.5250001
0.70440483 0.1234524 1.5250001
0.70452672 0.12296667 1.5190001
0.70741999 0.12296667 1.5190001
0.70704001 0.1224 1.5120001
0.70710284 0.1219143 1.506
0.70667148 0.12134763 1.4990001
0.70952672 0.12134763 1.4990001
0.71238196 0.12134763 1.4990001
0.71189719 0.12078096 1.4920001
0.71473908 0.12078096 1.4920001
0.71758097 0.12078096 1.4920001
0.72042286 0.12078096 1.4920001
0.72035623 0.12029524 1.4860001
0.71686 0.11924285 1.473
0.71673435 0.11875715 1.4670001
0.71364284 0.11778571 1.455
0.71641433 0.11778571 1.455
0.71918571 0.11778571 1.455
0.71898007 0.1173 1.4490001
0.72771716 0.11827143 1.4610001
0.73050004 0.11827143 1.4610001
0.68315715 0.13663143 1.649
0.68296856 0.13596857 1.641
0.68609428 0.13596857 1.641
0.68628007 0.13538857 1.6340001
0.68601716 0.13472572 1.626
0.68911427 0.13472572 1.626
0.68880576 0.13406286 1.618
0.68547332 0.13282 1.603
0.68551999 0.13224 1.5960001
0.68856001 0.13224 1.5960001
0.68856668 0.13166001 1.5890001
0.68811142 0.13099715 1.5810001
0.69112289 0.13099715 1.5810001
0.68798763 0.12983716 1.567
0.69405913 0.13041714 1.5740001
0.69395715 0.12983716 1.567
0.69382858 0.12925714 1.5600001
0.69679999 0.12925714 1.5600001
0.69663149 0.12867714 1.5530001
0.69958955 0.12867714 1.5530001
0.69938099 0.12809716 1.5460001
0.70232576 0.12809716 1.5460001
0.70207715 0.12751715 1.539
0.7018019 0.12693715 1.5320001
0.70472002 0.12693715 1.5320001
0.70440483 0.12635714 1.5250001
0.70730954 0.12635714 1.5250001
0.70741999 0.12586001 1.5190001
0.70704001 0.12528001 1.5120001
0.70991999 0.12528001 1.5120001
0.70667148 0.12420286 1.4990001
0.70621336 0.12362287 1.4920001
0.7090553 0.12362287 1.4920001
0.70903432 0.12312572 1.4860001
0.71473908 0.12362287 1.4920001
0.71758097 0.12362287 1.4920001
0.71462858 0.12262856 1.48
0.72035623 0.12312572 1.4860001
0.71686 0.12204857 1.473
0.71673435 0.12155144 1.4670001
0.71658576 0.12105429 1.4610001
0.71936858 0.12105429 1.4610001
0.71918571 0.12055714 1.455
0.72195715 0.12055714 1.455
0.72472858 0.12055714 1.455
0.73050004 0.12105429 1.4610001
0.67671716 0.13909428 1.641
0.68315715 0.13977239 1.649
0.68296856 0.13909428 1.641
0.68609428 0.13909428 1.641
0.68292004 0.13782287 1.626
0.68601716 0.13782287 1.626
0.68911427 0.13782287 1.626
0.68880576 0.13714476 1.618
0.68547332 0.13587333 1.603
0.68551999 0.13528 1.5960001
0.68554008 0.13468666 1.5890001
0.68856668 0.13468666 1.5890001
0.68811142 0.13400859 1.5810001
0.69112289 0.13400859 1.5810001
0.69106102 0.13341525 1.5740001
0.69405913 0.13341525 1.5740001
0.69395715 0.1328219 1.567
0.69382858 0.13222858 1.5600001
0.69679999 0.13222858 1.5600001
0.69663149 0.13163525 1.5530001
0.69643623 0.13104191 1.5460001
0.69938099 0.13104191 1.5460001
0.70232576 0.13104191 1.5460001
0.70207715 0.13044858 1.539
0.70500857 0.13044858 1.539
0.70472002 0.12985525 1.5320001
0.70763808 0.12985525 1.5320001
0.70730954 0.12926191 1.5250001
0.70741999 0.12875333 1.5190001
0.71031338 0.12875333 1.5190001
0.70991999 0.12816 1.5120001
0.70997143 0.12765142 1.506
0.71283996 0.12765142 1.506
0.7090553 0.12646477 1.4920001
0.71523714 0.1270581 1.4990001
0.71809238 0.1270581 1.4990001
0.71758097 0.12646477 1.4920001
0.71462858 0.12544762 1.48
0.71744764 0.12544762 1.48
0.7202667 0.12544762 1.48
0.71966577 0.12485428 1.473
0.71952862 0.12434573 1.4670001
0.72232294 0.12434573 1.4670001
0.72215146 0.12383715 1.4610001
0.72493428 0.12383715 1.4610001
0.72472858 0.12332858 1.455
0.68015909 0.14360666 1.6570001
0.68001622 0.14291334 1.649
0.68315715 0.14291334 1.649
0.68296856 0.14222001 1.641
0.68609428 0.14222001 1.641
0.68628007 0.14161333 1.6340001
0.68601716 0.14092 1.626
0.68572384 0.14022668 1.618
0.68242002 0.13892667 1.603
0.68547332 0.13892667 1.603
0.68551999 0.13832 1.5960001
0.68554008 0.13771334 1.5890001
0.68510002 0.13702001 1.5810001
0.68811142 0.13702001 1.5810001
0.68806291 0.13641334 1.5740001
0.69106102 0.13641334 1.5740001
0.69405913 0.13641334 1.5740001
0.69395715 0.13580666 1.567
0.69382858 0.13520001 1.5600001
0.69679999 0.13520001 1.5600001
0.6997714 0.13520001 1.5600001
0.69643623 0.13398667 1.5460001
0.69938099 0.13398667 1.5460001
0.69914573 0.13338 1.539
0.70207715 0.13338 1.539
0.7018019 0.13277334 1.5320001
0.70472002 0.13277334 1.5320001
0.70763808 0.13277334 1.5320001
0.70730954 0.13216667 1.5250001
0.71021432 0.13216667 1.5250001
0.71031338 0.13164666 1.5190001
0.70991999 0.13104001 1.5120001
0.71280003 0.13104001 1.5120001
0.71283996 0.13052 1.506
0.71570855 0.13052 1.506
0.71857715 0.13052 1.506
0.72144574 0.13052 1.506
0.72094768 0.12991334 1.4990001
0.72380286 0.12991334 1.4990001
0.72035623 0.12878668 1.4860001
0.7202667 0.12826668 1.48
0.71966577 0.12765999 1.473
0.72247148 0.12765999 1.473
0.72232294 0.12714 1.4670001
0.72511721 0.12714 1.4670001
0.72493428 0.12662001 1.4610001
0.67687523 0.1460543 1.649
0.68001622 0.1460543 1.649
0.68315715 0.1460543 1.649
0.68296856 0.14534572 1.641
0.68609428 0.14534572 1.641
0.68292004 0.14401715 1.626
0.68264186 0.14330857 1.618
0.68572384 0.14330857 1.618
0.68582571 0.14268857 1.6110001
0.68547332 0.14198001 1.603
0.68551999 0.14136 1.5960001
0.68554008 0.14074001 1.5890001
0.68856668 0.14074001 1.5890001
0.68811142 0.14003143 1.5810001
0.69112289 0.14003143 1.5810001
0.69106102 0.13941143 1.5740001
0.69405913 0.13941143 1.5740001
0.69395715 0.13879143 1.567
0.69694191 0.13879143 1.567
0.69679999 0.13817143 1.5600001
0.69663149 0.13755144 1.5530001
0.69643623 0.13693143 1.5460001
0.69938099 0.13693143 1.5460001
0.69914573 0.13631143 1.539
0.70207715 0.13631143 1.539
0.70500857 0.13631143 1.539
0.70472002 0.13569143 1.5320001
0.70763808 0.13569143 1.5320001
0.71055621 0.13569143 1.5320001
0.71021432 0.13507144 1.5250001
0.71031338 0.13453999 1.5190001
0.71320665 0.13453999 1.5190001
0.71280003 0.13392001 1.5120001
0.71283996 0.13338856 1.506
0.71570855 0.13338856 1.506
0.71189719 0.13214858 1.4920001
0.72144574 0.13338856 1.506
0.72094768 0.13276859 1.4990001
0.71752572 0.13161714 1.4860001
0.72035623 0.13161714 1.4860001
0.72318667 0.13161714 1.4860001
0.72894859 0.13214858 1.4920001
0.72884762 0.13161714 1.4860001
0.72872382 0.13108571 1.48
0.73154283 0.13108571 1.48
0.67687523 0.14919524 1.649
0.67671716 0.14847143 1.641
0.67984289 0.14847143 1.641
0.68296856 0.14847143 1.641
0.68316764 0.1478381 1.6340001
0.68292004 0.14711429 1.626
0.68264186 0.14639048 1.618
0.68572384 0.14639048 1.618
0.68242002 0.14503333 1.603
0.68247998 0.14440002 1.5960001
0.68551999 0.14440002 1.5960001
0.68856001 0.14440002 1.5960001
0.68856668 0.14376669 1.5890001
0.68811142 0.14304286 1.5810001
0.68806291 0.14240953 1.5740001
0.69106102 0.14240953 1.5740001
0.69405913 0.14240953 1.5740001
0.69395715 0.14177619 1.567
0.69694191 0.14177619 1.567
0.69679999 0.14114286 1.5600001
0.6997714 0.14114286 1.5600001
0.69958955 0.14050953 1.5530001
0.69938099 0.1398762 1.5460001
0.69914573 0.13924286 1.539
0.70207715 0.13924286 1.539
0.7018019 0.13860953 1.5320001
0.70472002 0.13860953 1.5320001
0.70440483 0.1379762 1.5250001
0.70730954 0.1379762 1.5250001
0.70741999 0.13743334 1.5190001
0.71031338 0.13743334 1.5190001
0.70991999 0.13680001 1.5120001
0.71280003 0.13680001 1.5120001
0.71568006 0.13680001 1.5120001
0.71570855 0.13625714 1.506
0.71857715 0.13625714 1.506
0.72144574 0.13625714 1.506
0.71758097 0.13499048 1.4920001
0.72042286 0.13499048 1.4920001
0.72326481 0.13499048 1.4920001
0.72318667 0.13444763 1.4860001
0.72601718 0.13444763 1.4860001
0.72884762 0.13444763 1.4860001
0.73167813 0.13444763 1.4860001
0.73450857 0.13444763 1.4860001
0.67687523 0.1523362 1.649
0.68001622 0.1523362 1.649
0.67984289 0.15159714 1.641
0.68296856 0.15159714 1.641
0.68316764 0.15095048 1.6340001
0.68292004 0.15021142 1.626
0.68264186 0.14947239 1.618
0.68275714 0.14882571 1.6110001
0.68242002 0.14808667 1.603
0.68247998 0.14744002 1.5960001
0.68551999 0.14744002 1.5960001
0.68554008 0.14679334 1.5890001
0.68856668 0.14679334 1.5890001
0.68811142 0.1460543 1.5810001
0.68806291 0.14540763 1.5740001
0.69106102 0.14540763 1.5740001
0.69405913 0.14540763 1.5740001
0.69705719 0.14540763 1.5740001
0.69694191 0.14476095 1.567
0.69679999 0.14411429 1.5600001
0.6997714 0.14411429 1.5600001
0.69958955 0.14346762 1.5530001
0.69938099 0.14282095 1.5460001
0.69914573 0.14217429 1.539
0.70207715 0.14217429 1.539
0.70500857 0.14217429 1.539
0.70472002 0.14152762 1.5320001
0.70763808 0.14152762 1.5320001
0.71055621 0.14152762 1.5320001
0.71021432 0.14088096 1.5250001
0.71311909 0.14088096 1.5250001
0.71320665 0.14032666 1.5190001
0.71610004 0.14032666 1.5190001
0.71568006 0.13968 1.5120001
0.71856004 0.13968 1.5120001
0.72144002 0.13968 1.5120001
0.72432005 0.13968 1.5120001
0.72094768 0.13847904 1.4990001
0.72042286 0.13783239 1.4920001
0.72326481 0.13783239 1.4920001
0.7261067 0.13783239 1.4920001
0.72601718 0.13727809 1.4860001
0.72884762 0.13727809 1.4860001
0.73167813 0.13727809 1.4860001
0.73450857 0.13727809 1.4860001
0.67700285 0.15623143 1.6570001
0.67687523 0.15547715 1.649
0.67671716 0.15472285 1.641
0.67984289 0.15472285 1.641
0.68296856 0.15472285 1.641
0.67982286 0.15330857 1.626
0.67956001 0.15255429 1.618
0.67968857 0.1518943 1.6110001
0.68275714 0.1518943 1.6110001
0.68242002 0.15114 1.603
0.68247998 0.15048002 1.5960001
0.68551999 0.15048002 1.5960001
0.68554008 0.14982 1.5890001
0.68856668 0.14982 1.5890001
0.68811142 0.14906572 1.5810001
0.68806291 0.14840573 1.5740001
0.69106102 0.14840573 1.5740001
0.69405913 0.14840573 1.5740001
0.69705719 0.14840573 1.5740001
0.69694191 0.14774571 1.567
0.69992667 0.14774571 1.567
0.6997714 0.14708571 1.5600001
0.69958955 0.14642572 1.5530001
0.69938099 0.14576572 1.5460001
0.69914573 0.14510572 1.539
0.70207715 0.14510572 1.539
0.70500857 0.14510572 1.539
0.70472002 0.14444572 1.5320001
0.70763808 0.14444572 1.5320001
0.71055621 0.14444572 1.5320001
0.71021432 0.14378572 1.5250001
0.71311909 0.14378572 1.5250001
0.71602386 0.14378572 1.5250001
0.71610004 0.14322001 1.5190001
0.71899337 0.14322001 1.5190001
0.71856004 0.14256001 1.5120001
0.72144002 0.14256001 1.5120001
0.72432005 0.14256001 1.5120001
0.72431433 0.1419943 1.506
0.72718287 0.1419943 1.506
0.72665811 0.14133428 1.4990001
0.7261067 0.14067429 1.4920001
0.73236865 0.14133428 1.4990001
0.73522383 0.14133428 1.4990001
0.73167813 0.14010859 1.4860001
0.67373431 0.15861811 1.649
0.67687523 0.15861811 1.649
0.67671716 0.15784857 1.641
0.67984289 0.15784857 1.641
0.68296856 0.15784857 1.641
0.67982286 0.15640572 1.626
0.67956001 0.15563619 1.618
0.67968857 0.15496285 1.6110001
0.67936671 0.15419333 1.603
0.67944002 0.15352002 1.5960001
0.68247998 0.15352002 1.5960001
0.68551999 0.15352002 1.5960001
0.68554008 0.15284668 1.5890001
0.68856668 0.15284668 1.5890001
0.69159335 0.15284668 1.5890001
0.69112289 0.15207715 1.5810001
0.69413435 0.15207715 1.5810001
0.69714576 0.15207715 1.5810001
0.69705719 0.15140381 1.5740001
0.69694191 0.15073048 1.567
0.69992667 0.15073048 1.567
0.6997714 0.15005715 1.5600001
0.69958955 0.14938381 1.5530001
0.69938099 0.14871049 1.5460001
0.69914573 0.14803715 1.539
0.70207715 0.14803715 1.539
0.70500857 0.14803715 1.539
0.70794004 0.14803715 1.539
0.70763808 0.14736381 1.5320001
0.71055621 0.14736381 1.5320001
0.71021432 0.14669049 1.5250001
0.71311909 0.14669049 1.5250001
0.71320665 0.14611334 1.5190001
0.71610004 0.14611334 1.5190001
0.71899337 0.14611334 1.5190001
0.72188669 0.14611334 1.5190001
0.72478002 0.14611334 1.5190001
0.72432005 0.14544 1.5120001
0.72720003 0.14544 1.5120001
0.72718287 0.14486286 1.506
0.73005146 0.14486286 1.506
0.72951335 0.14418952 1.4990001
0.73236865 0.14418952 1.4990001
0.73522383 0.14418952 1.4990001
0.67700285 0.16254382 1.6570001
0.67687523 0.16175905 1.649
0.68001622 0.16175905 1.649
0.68315715 0.16175905 1.649
0.68296856 0.16097429 1.641
0.67982286 0.15950286 1.626
0.67956001 0.15871809 1.618
0.67631334 0.15724668 1.603
0.67640001 0.15656 1.5960001
0.67944002 0.15656 1.5960001
0.68247998 0.15656 1.5960001
0.68251336 0.15587334 1.5890001
0.68554008 0.15587334 1.5890001
0.68856668 0.15587334 1.5890001
0.68811142 0.15508857 1.5810001
0.68806291 0.15440191 1.5740001
0.69106102 0.15440191 1.5740001
0.69405913 0.15440191 1.5740001
0.69705719 0.15440191 1.5740001
0.69694191 0.15371524 1.567
0.69992667 0.15371524 1.567
0.6997714 0.15302858 1.5600001
0.70274287 0.15302858 1.5600001
0.70254767 0.15234192 1.5530001
0.70232576 0.15165524 1.5460001
0.70527053 0.15165524 1.5460001
0.70500857 0.15096857 1.539
0.70794004 0.15096857 1.539
0.71087146 0.15096857 1.539
0.71380287 0.15096857 1.539
0.71021432 0.14959525 1.5250001
0.71311909 0.14959525 1.5250001
0.71320665 0.14900666 1.5190001
0.71610004 0.14900666 1.5190001
0.71899337 0.14900666 1.5190001
0.72188669 0.14900666 1.5190001
0.72478002 0.14900666 1.5190001
0.72432005 0.14832 1.5120001
0.72720003 0.14832 1.5120001
0.72718287 0.14773144 1.506
0.73005146 0.14773144 1.506
0.73292005 0.14773144 1.506
0.73578858 0.14773144 1.506
0.73522383 0.14704476 1.4990001
0.67700285 0.1657 1.6570001
0.67687523 0.1649 1.649
0.67671716 0.16410001 1.641
0.67984289 0.16410001 1.641
0.68005526 0.16340001 1.6340001
0.67982286 0.16260001 1.626
0.67956001 0.1618 1.618
0.67968857 0.1611 1.6110001
0.67936671 0.1603 1.603
0.67944002 0.1596 1.5960001
0.68247998 0.1596 1.5960001
0.68551999 0.1596 1.5960001
0.68856001 0.1596 1.5960001
0.68856668 0.15890001 1.5890001
0.68811142 0.15810001 1.5810001
0.68806291 0.15740001 1.5740001
0.69106102 0.15740001 1.5740001
0.69405913 0.15740001 1.5740001
0.69705719 0.15740001 1.5740001
0.69694191 0.1567 1.567
0.69992667 0.1567 1.567
0.6997714 0.156 1.5600001
0.70274287 0.156 1.5600001
0.70254767 0.15530001 1.5530001
0.70232576 0.15460001 1.5460001
0.70527053 0.15460001 1.5460001
0.70821524 0.15460001 1.5460001
0.70472002 0.1532 1.5320001
0.71087146 0.1539 1.539
0.71055621 0.1532 1.5320001
0.71347427 0.1532 1.5320001
0.71311909 0.15250002 1.5250001
0.71320665 0.15190001 1.5190001
0.71610004 0.15190001 1.5190001
0.71899337 0.15190001 1.5190001
0.72188669 0.15190001 1.5190001
0.72478002 0.15190001 1.5190001
0.72767335 0.15190001 1.5190001
0.72720003 0.15120001 1.5120001
0.72380286 0.1499 1.4990001
0.72665811 0.1499 1.4990001
0.73292005 0.1506 1.506
0.73578858 0.1506 1.506
0.67700285 0.1688562 1.6570001
0.67359143 0.16722572 1.641
0.67671716 0.16722572 1.641
0.67984289 0.16722572 1.641
0.68005526 0.16651239 1.6340001
0.67982286 0.16569716 1.626
0.67956001 0.16488191 1.618
0.67968857 0.16416858 1.6110001
0.67640001 0.16264001 1.5960001
0.67944002 0.16264001 1.5960001
0.68247998 0.16264001 1.5960001
0.68551999 0.16264001 1.5960001
0.68856001 0.16264001 1.5960001
0.68856668 0.16192667 1.5890001
0.68811142 0.16111143 1.5810001
0.68806291 0.16039811 1.5740001
0.69106102 0.16039811 1.5740001
0.69405913 0.16039811 1.5740001
0.69705719 0.16039811 1.5740001
0.69694191 0.15968476 1.567
0.69992667 0.15968476 1.567
0.70291144 0.15968476 1.567
0.70274287 0.15897144 1.5600001
0.70571429 0.15897144 1.5600001
0.70232576 0.15754478 1.5460001
0.70527053 0.15754478 1.5460001
0.70821524 0.15754478 1.5460001
0.70794004 0.15683143 1.539
0.71410483 0.15754478 1.5460001
0.71380287 0.15683143 1.539
0.71673435 0.15683143 1.539
0.71966571 0.15683143 1.539
0.71320665 0.15479334 1.5190001
0.71610004 0.15479334 1.5190001
0.71899337 0.15479334 1.5190001
0.72188669 0.15479334 1.5190001
0.72478002 0.15479334 1.5190001
0.72767335 0.15479334 1.5190001
0.72720003 0.15408 1.5120001
0.72380286 0.15275525 1.4990001
0.72665811 0.15275525 1.4990001
0.67359143 0.17035143 1.641
0.67671716 0.17035143 1.641
0.67640001 0.16568001 1.5960001
0.67944002 0.16568001 1.5960001
0.68247998 0.16568001 1.5960001
0.68551999 0.16568001 1.5960001
0.68554008 0.16495334 1.5890001
0.68856668 0.16495334 1.5890001
0.69159335 0.16495334 1.5890001
0.69112289 0.16412286 1.5810001
0.69106102 0.16339619 1.5740001
0.69405913 0.16339619 1.5740001
0.69705719 0.16339619 1.5740001
0.69694191 0.16266952 1.567
0.69992667 0.16266952 1.567
0.70291144 0.16266952 1.567
0.70274287 0.16194287 1.5600001
0.70571429 0.16194287 1.5600001
0.70232576 0.16048953 1.5460001
0.70527053 0.16048953 1.5460001
0.70821524 0.16048953 1.5460001
0.70794004 0.15976286 1.539
0.71410483 0.16048953 1.5460001
0.71380287 0.15976286 1.539
0.71673435 0.15976286 1.539
0.71966571 0.15976286 1.539
0.67944002 0.16872001 1.5960001
0.68247998 0.16872001 1.5960001
0.68551999 0.16872001 1.5960001
0.68554008 0.16798002 1.5890001
0.68856668 0.16798002 1.5890001
0.68811142 0.1671343 1.5810001
0.69112289 0.1671343 1.5810001
0.69106102 0.16639431 1.5740001
0.69405913 0.16639431 1.5740001
0.69705719 0.16639431 1.5740001
0.69694191 0.16565429 1.567
0.69992667 0.16565429 1.567
0.70291144 0.16565429 1.567
0.70232576 0.1634343 1.5460001
0.70527053 0.1634343 1.5460001
0.70821524 0.1634343 1.5460001
0.67646003 0.17100666 1.5890001
0.68247998 0.17176001 1.5960001
0.68551999 0.17176001 1.5960001
0.68856001 0.17176001 1.5960001
0.68856668 0.17100666 1.5890001
0.69159335 0.17100666 1.5890001
0.69112289 0.17014572 1.5810001
0.69413435 0.17014572 1.5810001
0.69714576 0.17014572 1.5810001
0.69705719 0.16939239 1.5740001
0.67646003 0.17403334 1.5890001
0.68247998 0.17480001 1.5960001
0.68551999 0.17480001 1.5960001
0.68554008 0.17403334 1.5890001
0.68856668 0.17403334 1.5890001
0.68811142 0.17315716 1.5810001
0.68806291 0.17239049 1.5740001
0.69106102 0.17239049 1.5740001
0.69714576 0.17315716 1.5810001
0.68247998 0.17784001 1.5960001
0.68551999 0.17784001 1.5960001
0.68856001 0.17784001 1.5960001
0.68856668 0.17706001 1.5890001
0.69159335 0.17706001 1.5890001
0.69462007 0.17706001 1.5890001
0.69106102 0.17538859 1.5740001
0.68551999 0.18088001 1.5960001
0.68856001 0.18088001 1.5960001
0.69160002 0.18088001 1.5960001
0.69159335 0.18008669 1.5890001
0.69462007 0.18008669 1.5890001
0.68856001 0.18392001 1.5960001
0.69160002 0.18392001 1.5960001
0.69463998 0.18392001 1.5960001
0.69768 0.18392001 1.5960001
0.68856001 0.18696001 1.5960001
0.69160002 0.18696001 1.5960001
0.69463998 0.18696001 1.5960001
0.69768 0.18696001 1.5960001
