# .PCD v0.7 - Point Cloud Data file format
VERSION 0.7
FIELDS x y z
SIZE 4 4 4
TYPE F F F
COUNT 1 1 1
WIDTH 1090
HEIGHT 1
VIEWPOINT 0 0 0 1 0 0 0
POINTS 1090
DATA ascii
0.61376101 -0.058400955 1.1570001
0.61596483 -0.058400955 1.1570001
0.61816859 -0.058400955 1.1570001
0.6182276 -0.058199048 1.153
0.62042379 -0.058199048 1.153
0.61588287 -0.056391429 1.161
0.61809433 -0.056391429 1.161
0.61816859 -0.056197144 1.1570001
0.62037241 -0.056197144 1.1570001
0.62257618 -0.056197144 1.1570001
0.6180048 -0.054366671 1.1650001
0.62022382 -0.054366671 1.1650001
0.62030572 -0.05418 1.161
0.62037241 -0.053993337 1.1570001
0.62257618 -0.053993337 1.1570001
0.6180048 -0.052147623 1.1650001
0.62022382 -0.052147623 1.1650001
0.62030572 -0.051968571 1.161
0.62251717 -0.051968571 1.161
0.62472862 -0.051968571 1.161
0.61578578 -0.049928572 1.1650001
0.6180048 -0.049928572 1.1650001
0.62022382 -0.049928572 1.1650001
0.62030572 -0.049757142 1.161
0.62251717 -0.049757142 1.161
0.62472862 -0.049757142 1.161
0.61578578 -0.047709528 1.1650001
0.62012666 -0.047873333 1.169
0.62022382 -0.047709528 1.1650001
0.6224429 -0.047709528 1.1650001
0.62251717 -0.047545712 1.161
0.62472862 -0.047545712 1.161
0.61578578 -0.045490477 1.1650001
0.6180048 -0.045490477 1.1650001
0.62022382 -0.045490477 1.1650001
0.62030572 -0.045334287 1.161
0.62251717 -0.045334287 1.161
0.62472862 -0.045334287 1.161
0.61790001 -0.043419998 1.169
0.62012666 -0.043419998 1.169
0.62022382 -0.04327143 1.1650001
0.6224429 -0.04327143 1.1650001
0.62251717 -0.043122858 1.161
0.62472862 -0.043122858 1.161
0.61567336 -0.041193336 1.169
0.61790001 -0.041193336 1.169
0.62012666 -0.041193336 1.169
0.62022382 -0.041052382 1.1650001
0.6224429 -0.041052382 1.1650001
0.62466192 -0.041052382 1.1650001
0.626881 -0.041052382 1.1650001
0.6135667 -0.038833335 1.1650001
0.61790001 -0.038966667 1.169
0.62012666 -0.038966667 1.169
0.62022382 -0.038833335 1.1650001
0.6224429 -0.038833335 1.1650001
0.62466192 -0.038833335 1.1650001
0.626881 -0.038833335 1.1650001
0.61567336 -0.036739998 1.169
0.61790001 -0.036739998 1.169
0.62012666 -0.036739998 1.169
0.62022382 -0.036614288 1.1650001
0.6224429 -0.036614288 1.1650001
0.62466192 -0.036614288 1.1650001
0.626881 -0.036614288 1.1650001
0.61567336 -0.034513336 1.169
0.61790001 -0.034513336 1.169
0.62012666 -0.034513336 1.169
0.62022382 -0.03439524 1.1650001
0.6224429 -0.03439524 1.1650001
0.62466192 -0.03439524 1.1650001
0.626881 -0.03439524 1.1650001
0.61567336 -0.032286666 1.169
0.61790001 -0.032286666 1.169
0.62012666 -0.032286666 1.169
0.62022382 -0.032176193 1.1650001
0.6224429 -0.032176193 1.1650001
0.62466192 -0.032176193 1.1650001
0.626881 -0.032176193 1.1650001
0.61567336 -0.030060001 1.169
0.61790001 -0.030060001 1.169
0.62012666 -0.030060001 1.169
0.62235332 -0.030060001 1.169
0.62458003 -0.030060001 1.169
0.62466192 -0.029957144 1.1650001
0.626881 -0.029957144 1.1650001
0.61567336 -0.027833333 1.169
0.61790001 -0.027833333 1.169
0.62012666 -0.027833333 1.169
0.62235332 -0.027833333 1.169
0.62458003 -0.027833333 1.169
0.62466192 -0.027738096 1.1650001
0.626881 -0.027738096 1.1650001
0.61778003 -0.025694286 1.1730001
0.61790001 -0.025606668 1.169
0.62012666 -0.025606668 1.169
0.62235332 -0.025606668 1.169
0.62458003 -0.025606668 1.169
0.62466192 -0.025519049 1.1650001
0.626881 -0.025519049 1.1650001
0.61344665 -0.02338 1.169
0.6198867 -0.023540001 1.177
0.62001437 -0.023460001 1.1730001
0.62224865 -0.023460001 1.1730001
0.62235332 -0.02338 1.169
0.62458003 -0.02338 1.169
0.62466192 -0.023300001 1.1650001
0.626881 -0.023300001 1.1650001
0.61554575 -0.021225717 1.1730001
0.62199342 -0.021370478 1.1810001
0.62212861 -0.021298096 1.177
0.62012666 -0.021153333 1.169
0.62235332 -0.021153333 1.169
0.62458003 -0.021153333 1.169
0.62680668 -0.021153333 1.169
0.62903339 -0.021153333 1.169
0.61554575 -0.018991429 1.1730001
0.62199342 -0.019120954 1.1810001
0.62212861 -0.019056192 1.177
0.62224865 -0.018991429 1.1730001
0.62235332 -0.018926667 1.169
0.62458003 -0.018926667 1.169
0.62466192 -0.018861907 1.1650001
0.626881 -0.018861907 1.1650001
0.61974388 -0.01687143 1.1810001
0.62199342 -0.01687143 1.1810001
0.62212861 -0.016814286 1.177
0.62224865 -0.016757144 1.1730001
0.62448287 -0.016757144 1.1730001
0.62458003 -0.0167 1.169
0.62680668 -0.0167 1.169
0.62903339 -0.0167 1.169
0.61974388 -0.014621906 1.1810001
0.6198867 -0.014572381 1.177
0.62212861 -0.014572381 1.177
0.62224865 -0.014522858 1.1730001
0.62448287 -0.014522858 1.1730001
0.62458003 -0.014473334 1.169
0.62680668 -0.014473334 1.169
0.62903339 -0.014473334 1.169
0.61974388 -0.012372382 1.1810001
0.6198867 -0.012330476 1.177
0.62212861 -0.012330476 1.177
0.62437052 -0.012330476 1.177
0.62448287 -0.012288572 1.1730001
0.62671715 -0.012288572 1.1730001
0.62895149 -0.012288572 1.1730001
0.63118577 -0.012288572 1.1730001
0.61749434 -0.010122858 1.1810001
0.61974388 -0.010122858 1.1810001
0.6198867 -0.010088571 1.177
0.6242429 -0.010122858 1.1810001
0.62437052 -0.010088571 1.177
0.62661242 -0.010088571 1.177
0.62671715 -0.010054287 1.1730001
0.62895149 -0.010054287 1.1730001
0.63118577 -0.010054287 1.1730001
0.61749434 -0.007873334 1.1810001
0.61974388 -0.007873334 1.1810001
0.62199342 -0.007873334 1.1810001
0.6242429 -0.007873334 1.1810001
0.62437052 -0.0078466665 1.177
0.62661242 -0.0078466665 1.177
0.62671715 -0.0078199999 1.1730001
0.62895149 -0.0078199999 1.1730001
0.63118577 -0.0078199999 1.1730001
0.61749434 -0.00562381 1.1810001
0.61974388 -0.00562381 1.1810001
0.62199342 -0.00562381 1.1810001
0.6242429 -0.00562381 1.1810001
0.62649244 -0.00562381 1.1810001
0.62661242 -0.0056047621 1.177
0.62885427 -0.0056047621 1.177
0.63109618 -0.0056047621 1.177
0.63333809 -0.0056047621 1.177
0.61524481 -0.003374286 1.1810001
0.61749434 -0.003374286 1.1810001
0.61974388 -0.003374286 1.1810001
0.62199342 -0.003374286 1.1810001
0.6242429 -0.003374286 1.1810001
0.62649244 -0.003374286 1.1810001
0.62661242 -0.0033628573 1.177
0.62885427 -0.0033628573 1.177
0.63109618 -0.0033628573 1.177
0.63333809 -0.0033628573 1.177
0.61524481 -0.001124762 1.1810001
0.61749434 -0.001124762 1.1810001
0.61974388 -0.001124762 1.1810001
0.62199342 -0.001124762 1.1810001
0.6242429 -0.001124762 1.1810001
0.62649244 -0.001124762 1.1810001
0.62874198 -0.001124762 1.1810001
0.62885427 -0.0011209524 1.177
0.63109618 -0.0011209524 1.177
0.63333809 -0.0011209524 1.177
0.61524481 0.001124762 1.1810001
0.61749434 0.001124762 1.1810001
0.61974388 0.001124762 1.1810001
0.62199342 0.001124762 1.1810001
0.6242429 0.001124762 1.1810001
0.62649244 0.001124762 1.1810001
0.62874198 0.001124762 1.1810001
0.63099152 0.001124762 1.1810001
0.63109618 0.0011209524 1.177
0.63333809 0.0011209524 1.177
0.61524481 0.003374286 1.1810001
0.61958575 0.0033857145 1.1850001
0.62184292 0.0033857145 1.1850001
0.62199342 0.003374286 1.1810001
0.6242429 0.003374286 1.1810001
0.62649244 0.003374286 1.1810001
0.62874198 0.003374286 1.1810001
0.63099152 0.003374286 1.1810001
0.633241 0.003374286 1.1810001
0.63549054 0.003374286 1.1810001
0.61958575 0.0056428574 1.1850001
0.62184292 0.0056428574 1.1850001
0.62410003 0.0056428574 1.1850001
0.6242429 0.00562381 1.1810001
0.62649244 0.00562381 1.1810001
0.62874198 0.00562381 1.1810001
0.63099152 0.00562381 1.1810001
0.633241 0.00562381 1.1810001
0.63549054 0.00562381 1.1810001
0.6216771 0.0079266662 1.189
0.62184292 0.0078999996 1.1850001
0.62410003 0.0078999996 1.1850001
0.6263572 0.0078999996 1.1850001
0.62861431 0.0078999996 1.1850001
0.62874198 0.007873334 1.1810001
0.63099152 0.007873334 1.1810001
0.633241 0.007873334 1.1810001
0.63549054 0.007873334 1.1810001
0.6216771 0.010191428 1.189
0.6239419 0.010191428 1.189
0.62410003 0.010157144 1.1850001
0.6263572 0.010157144 1.1850001
0.62861431 0.010157144 1.1850001
0.62874198 0.010122858 1.1810001
0.63099152 0.010122858 1.1810001
0.633241 0.010122858 1.1810001
0.63549054 0.010122858 1.1810001
0.62376857 0.012498097 1.1930001
0.62604094 0.012498097 1.1930001
0.6262067 0.012456191 1.189
0.6263572 0.012414286 1.1850001
0.62861431 0.012414286 1.1850001
0.63087147 0.012414286 1.1850001
0.63099152 0.012372382 1.1810001
0.633241 0.012372382 1.1810001
0.63549054 0.012372382 1.1810001
0.62358004 0.014820001 1.197
0.62376857 0.014770477 1.1930001
0.62604094 0.014770477 1.1930001
0.6262067 0.014720952 1.189
0.6263572 0.014671429 1.1850001
0.62861431 0.014671429 1.1850001
0.62874198 0.014621906 1.1810001
0.63099152 0.014621906 1.1810001
0.63109618 0.014572381 1.177
0.63333809 0.014572381 1.177
0.62389523 0.017171429 1.202
0.62358004 0.017099999 1.197
0.62586004 0.017099999 1.197
0.62604094 0.017042857 1.1930001
0.6262067 0.016985714 1.189
0.6263572 0.016928572 1.1850001
0.62861431 0.016928572 1.1850001
0.63087147 0.016928572 1.1850001
0.63099152 0.01687143 1.1810001
0.63109618 0.016814286 1.177
0.63333809 0.016814286 1.177
0.62389523 0.019460952 1.202
0.62618476 0.019460952 1.202
0.62586004 0.019380001 1.197
0.62813997 0.019380001 1.197
0.6262067 0.019250475 1.189
0.62847143 0.019250475 1.189
0.62861431 0.019185714 1.1850001
0.63087147 0.019185714 1.1850001
0.63099152 0.019120954 1.1810001
0.633241 0.019120954 1.1810001
0.63549054 0.019120954 1.1810001
0.62389523 0.021750478 1.202
0.62618476 0.021750478 1.202
0.62586004 0.02166 1.197
0.62813997 0.02166 1.197
0.62831336 0.02158762 1.1930001
0.62847143 0.021515237 1.189
0.62861431 0.021442859 1.1850001
0.63087147 0.021442859 1.1850001
0.63099152 0.021370478 1.1810001
0.633241 0.021370478 1.1810001
0.63549054 0.021370478 1.1810001
0.62389523 0.024040001 1.202
0.62618476 0.024040001 1.202
0.62586004 0.023940001 1.197
0.62813997 0.023940001 1.197
0.62831336 0.023860002 1.1930001
0.63058573 0.023860002 1.1930001
0.63073617 0.023779999 1.189
0.63087147 0.023700003 1.1850001
0.63099152 0.023620002 1.1810001
0.633241 0.023620002 1.1810001
0.63549054 0.023620002 1.1810001
0.62389523 0.026329523 1.202
0.62618476 0.026329523 1.202
0.62586004 0.026219999 1.197
0.62813997 0.026219999 1.197
0.62831336 0.026132382 1.1930001
0.62847143 0.026044762 1.189
0.62861431 0.025957143 1.1850001
0.63087147 0.025957143 1.1850001
0.63312858 0.025957143 1.1850001
0.633241 0.025869526 1.1810001
0.63549054 0.025869526 1.1810001
0.62160575 0.028619049 1.202
0.62389523 0.028619049 1.202
0.62618476 0.028619049 1.202
0.62586004 0.0285 1.197
0.62813997 0.0285 1.197
0.62831336 0.028404765 1.1930001
0.63058573 0.028404765 1.1930001
0.62861431 0.028214287 1.1850001
0.63087147 0.028214287 1.1850001
0.63312858 0.028214287 1.1850001
0.63538575 0.028214287 1.1850001
0.63764286 0.028214287 1.1850001
0.62160575 0.030908573 1.202
0.62389523 0.030908573 1.202
0.62618476 0.030908573 1.202
0.62586004 0.030780001 1.197
0.62813997 0.030780001 1.197
0.62831336 0.030677145 1.1930001
0.63058573 0.030677145 1.1930001
0.62861431 0.030471429 1.1850001
0.63087147 0.030471429 1.1850001
0.63312858 0.030471429 1.1850001
0.63538575 0.030471429 1.1850001
0.63764286 0.030471429 1.1850001
0.62160575 0.033198096 1.202
0.62389523 0.033198096 1.202
0.62618476 0.033198096 1.202
0.62586004 0.033059999 1.197
0.62813997 0.033059999 1.197
0.62831336 0.032949526 1.1930001
0.63058573 0.032949526 1.1930001
0.6328581 0.032949526 1.1930001
0.63513047 0.032949526 1.1930001
0.63740289 0.032949526 1.1930001
0.63967526 0.032949526 1.1930001
0.64194763 0.032949526 1.1930001
0.62160575 0.035487618 1.202
0.62389523 0.035487618 1.202
0.62618476 0.035487618 1.202
0.62586004 0.03534 1.197
0.62813997 0.03534 1.197
0.62831336 0.035221905 1.1930001
0.63270003 0.03534 1.197
0.6328581 0.035221905 1.1930001
0.63725996 0.03534 1.197
0.63740289 0.035221905 1.1930001
0.63753045 0.035103809 1.189
0.63979524 0.035103809 1.189
0.62160575 0.037777144 1.202
0.62389523 0.037777144 1.202
0.62618476 0.037777144 1.202
0.62586004 0.037620001 1.197
0.62813997 0.037620001 1.197
0.63042003 0.037620001 1.197
0.63270003 0.037620001 1.197
0.63498002 0.037620001 1.197
0.63725996 0.037620001 1.197
0.63740289 0.037494287 1.1930001
0.63967526 0.037494287 1.1930001
0.64194763 0.037494287 1.1930001
0.61931616 0.040066667 1.202
0.62160575 0.040066667 1.202
0.62389523 0.040066667 1.202
0.62358004 0.039900001 1.197
0.62586004 0.039900001 1.197
0.62813997 0.039900001 1.197
0.63042003 0.039900001 1.197
0.63270003 0.039900001 1.197
0.63498002 0.039900001 1.197
0.63513047 0.039766666 1.1930001
0.63740289 0.039766666 1.1930001
0.63753045 0.039633334 1.189
0.63979524 0.039633334 1.189
0.61702663 0.042356189 1.202
0.61931616 0.042356189 1.202
0.62160575 0.042356189 1.202
0.62389523 0.042356189 1.202
0.62618476 0.042356189 1.202
0.6284743 0.042356189 1.202
0.62813997 0.042180002 1.197
0.63042003 0.042180002 1.197
0.63270003 0.042180002 1.197
0.63498002 0.042180002 1.197
0.63725996 0.042180002 1.197
0.63954002 0.042180002 1.197
0.63967526 0.042039048 1.1930001
0.64194763 0.042039048 1.1930001
0.61908007 0.044794288 1.2060001
0.61931616 0.044645716 1.202
0.62160575 0.044645716 1.202
0.62389523 0.044645716 1.202
0.62618476 0.044645716 1.202
0.6284743 0.044645716 1.202
0.63076383 0.044645716 1.202
0.63042003 0.044460002 1.197
0.63270003 0.044460002 1.197
0.63498002 0.044460002 1.197
0.63725996 0.044460002 1.197
0.63954002 0.044460002 1.197
0.63967526 0.04431143 1.1930001
0.64194763 0.04431143 1.1930001
0.6167829 0.047091432 1.2060001
0.61908007 0.047091432 1.2060001
0.61931616 0.046935238 1.202
0.62160575 0.046935238 1.202
0.62389523 0.046935238 1.202
0.62618476 0.046935238 1.202
0.6284743 0.046935238 1.202
0.62813997 0.046739999 1.197
0.63042003 0.046739999 1.197
0.63270003 0.046739999 1.197
0.63498002 0.046739999 1.197
0.63725996 0.046739999 1.197
0.63954002 0.046739999 1.197
0.64182001 0.046739999 1.197
0.64410001 0.046739999 1.197
0.6167829 0.049388576 1.2060001
0.61908007 0.049388576 1.2060001
0.61931616 0.04922476 1.202
0.62160575 0.04922476 1.202
0.62389523 0.04922476 1.202
0.62618476 0.04922476 1.202
0.6284743 0.04922476 1.202
0.62813997 0.04902 1.197
0.63042003 0.04902 1.197
0.63270003 0.04902 1.197
0.63498002 0.04902 1.197
0.63725996 0.04902 1.197
0.63954002 0.04902 1.197
0.64182001 0.04902 1.197
0.64410001 0.04902 1.197
0.61882859 0.051857144 1.21
0.62113333 0.051857144 1.21
0.61931616 0.051514287 1.202
0.62160575 0.051514287 1.202
0.62389523 0.051514287 1.202
0.62618476 0.051514287 1.202
0.6284743 0.051514287 1.202
0.63076383 0.051514287 1.202
0.6330533 0.051514287 1.202
0.63270003 0.0513 1.197
0.63763243 0.051514287 1.202
0.63725996 0.0513 1.197
0.64221144 0.051514287 1.202
0.64182001 0.0513 1.197
0.64410001 0.0513 1.197
0.62087429 0.054340959 1.2140001
0.62113333 0.054161906 1.21
0.62343812 0.054161906 1.21
0.62367433 0.053982858 1.2060001
0.62597144 0.053982858 1.2060001
0.62618476 0.053803809 1.202
0.6284743 0.053803809 1.202
0.63076383 0.053803809 1.202
0.6330533 0.053803809 1.202
0.63534284 0.053803809 1.202
0.63763243 0.053803809 1.202
0.6399219 0.053803809 1.202
0.64221144 0.053803809 1.202
0.64450097 0.053803809 1.202
0.64679044 0.053803809 1.202
0.62087429 0.056653336 1.2140001
0.62318671 0.056653336 1.2140001
0.62343812 0.056466665 1.21
0.62574285 0.056466665 1.21
0.62804765 0.056466665 1.21
0.62826866 0.056280006 1.2060001
0.63056576 0.056280006 1.2060001
0.63076383 0.056093335 1.202
0.6330533 0.056093335 1.202
0.63534284 0.056093335 1.202
0.63763243 0.056093335 1.202
0.6399219 0.056093335 1.202
0.64221144 0.056093335 1.202
0.64450097 0.056093335 1.202
0.64679044 0.056093335 1.202
0.62087429 0.05896572 1.2140001
0.62318671 0.05896572 1.2140001
0.62343812 0.058771431 1.21
0.62574285 0.058771431 1.21
0.62597144 0.058577146 1.2060001
0.62826866 0.058577146 1.2060001
0.6284743 0.058382858 1.202
0.63076383 0.058382858 1.202
0.6330533 0.058382858 1.202
0.63534284 0.058382858 1.202
0.63763243 0.058382858 1.202
0.6399219 0.058382858 1.202
0.64221144 0.058382858 1.202
0.64450097 0.058382858 1.202
0.64679044 0.058382858 1.202
0.62113333 0.061076194 1.21
0.62549907 0.061278097 1.2140001
0.62574285 0.061076194 1.21
0.62804765 0.061076194 1.21
0.62826866 0.060874287 1.2060001
0.63056576 0.060874287 1.2060001
0.63076383 0.06067238 1.202
0.6330533 0.06067238 1.202
0.63534284 0.06067238 1.202
0.63763243 0.06067238 1.202
0.6399219 0.06067238 1.202
0.64221144 0.06067238 1.202
0.64450097 0.06067238 1.202
0.64679044 0.06067238 1.202
0.62318671 0.063590482 1.2140001
0.62549907 0.063590482 1.2140001
0.62781149 0.063590482 1.2140001
0.62804765 0.063380957 1.21
0.63035238 0.063380957 1.21
0.63056576 0.063171431 1.2060001
0.63286287 0.063171431 1.2060001
0.63516003 0.063171431 1.2060001
0.63534284 0.062961906 1.202
0.63763243 0.062961906 1.202
0.6399219 0.062961906 1.202
0.64221144 0.062961906 1.202
0.64450097 0.062961906 1.202
0.64679044 0.062961906 1.202
0.62318671 0.065902859 1.2140001
0.62549907 0.065902859 1.2140001
0.62781149 0.065902859 1.2140001
0.62804765 0.065685712 1.21
0.63035238 0.065685712 1.21
0.63265717 0.065685712 1.21
0.63286287 0.065468572 1.2060001
0.63516003 0.065468572 1.2060001
0.63745719 0.065468572 1.2060001
0.63975435 0.065468572 1.2060001
0.6399219 0.065251425 1.202
0.64221144 0.065251425 1.202
0.64450097 0.065251425 1.202
0.64679044 0.065251425 1.202
0.62318671 0.068215244 1.2140001
0.62549907 0.068215244 1.2140001
0.62574285 0.067990474 1.21
0.62804765 0.067990474 1.21
0.63035238 0.067990474 1.21
0.63265717 0.067990474 1.21
0.6349619 0.067990474 1.21
0.63516003 0.06776572 1.2060001
0.63745719 0.06776572 1.2060001
0.63975435 0.06776572 1.2060001
0.6399219 0.067540951 1.202
0.64221144 0.067540951 1.202
0.64450097 0.067540951 1.202
0.64679044 0.067540951 1.202
0.62113333 0.070295244 1.21
0.62549907 0.070527628 1.2140001
0.62574285 0.070295244 1.21
0.62804765 0.070295244 1.21
0.62826866 0.070062861 1.2060001
0.63265717 0.070295244 1.21
0.6349619 0.070295244 1.21
0.63516003 0.070062861 1.2060001
0.63745719 0.070062861 1.2060001
0.63975435 0.070062861 1.2060001
0.64205146 0.070062861 1.2060001
0.64434862 0.070062861 1.2060001
0.64450097 0.069830477 1.202
0.64679044 0.069830477 1.202
0.62113333 0.0726 1.21
0.62549907 0.072840005 1.2140001
0.62574285 0.0726 1.21
0.62804765 0.0726 1.21
0.62826866 0.072360002 1.2060001
0.63265717 0.0726 1.21
0.63286287 0.072360002 1.2060001
0.63516003 0.072360002 1.2060001
0.63745719 0.072360002 1.2060001
0.63975435 0.072360002 1.2060001
0.64205146 0.072360002 1.2060001
0.64221144 0.072119996 1.202
0.64450097 0.072119996 1.202
0.64679044 0.072119996 1.202
0.62343144 0.075461909 1.2190001
0.62318671 0.075152382 1.2140001
0.62549907 0.075152382 1.2140001
0.62574285 0.074904762 1.21
0.62804765 0.074904762 1.21
0.63035238 0.074904762 1.21
0.63265717 0.074904762 1.21
0.63286287 0.07465715 1.2060001
0.63516003 0.07465715 1.2060001
0.63745719 0.07465715 1.2060001
0.63975435 0.07465715 1.2060001
0.6399219 0.07440953 1.202
0.64221144 0.07440953 1.202
0.64450097 0.07440953 1.202
0.64679044 0.07440953 1.202
0.62110955 0.077783816 1.2190001
0.62343144 0.077783816 1.2190001
0.62318671 0.077464767 1.2140001
0.62549907 0.077464767 1.2140001
0.62781149 0.077464767 1.2140001
0.63012385 0.077464767 1.2140001
0.63035238 0.077209525 1.21
0.63265717 0.077209525 1.21
0.6349619 0.077209525 1.21
0.63516003 0.076954298 1.2060001
0.63745719 0.076954298 1.2060001
0.63975435 0.076954298 1.2060001
0.64205146 0.076954298 1.2060001
0.64434862 0.076954298 1.2060001
0.64664572 0.076954298 1.2060001
0.64894295 0.076954298 1.2060001
0.61646575 0.080105722 1.2190001
0.61624956 0.079777151 1.2140001
0.62110955 0.080105722 1.2190001
0.62343144 0.080105722 1.2190001
0.62318671 0.079777151 1.2140001
0.62549907 0.079777151 1.2140001
0.62781149 0.079777151 1.2140001
0.63012385 0.079777151 1.2140001
0.63035238 0.079514287 1.21
0.63265717 0.079514287 1.21
0.63286287 0.079251431 1.2060001
0.63516003 0.079251431 1.2060001
0.63745719 0.079251431 1.2060001
0.63975435 0.079251431 1.2060001
0.64205146 0.079251431 1.2060001
0.64434862 0.079251431 1.2060001
0.64879054 0.079514287 1.21
0.65109527 0.079514287 1.21
0.61393714 0.082089528 1.2140001
0.61624956 0.082089528 1.2140001
0.61856192 0.082089528 1.2140001
0.62087429 0.082089528 1.2140001
0.62318671 0.082089528 1.2140001
0.62549907 0.082089528 1.2140001
0.62781149 0.082089528 1.2140001
0.63012385 0.082089528 1.2140001
0.63035238 0.08181905 1.21
0.63265717 0.08181905 1.21
0.6349619 0.08181905 1.21
0.63726664 0.08181905 1.21
0.63745719 0.081548579 1.2060001
0.63975435 0.081548579 1.2060001
0.64418095 0.08181905 1.21
0.64648569 0.08181905 1.21
0.64879054 0.08181905 1.21
0.65109527 0.08181905 1.21
0.61393714 0.084401913 1.2140001
0.61624956 0.084401913 1.2140001
0.62110955 0.084749527 1.2190001
0.62343144 0.084749527 1.2190001
0.6257534 0.084749527 1.2190001
0.62549907 0.084401913 1.2140001
0.62781149 0.084401913 1.2140001
0.63012385 0.084401913 1.2140001
0.63035238 0.084123813 1.21
0.63265717 0.084123813 1.21
0.6349619 0.084123813 1.21
0.63726664 0.084123813 1.21
0.63745719 0.08384572 1.2060001
0.63975435 0.08384572 1.2060001
0.64418095 0.084123813 1.21
0.64862293 0.084401913 1.2140001
0.65093529 0.084401913 1.2140001
0.65324765 0.084401913 1.2140001
0.61878765 0.087071441 1.2190001
0.62110955 0.087071441 1.2190001
0.62343144 0.087071441 1.2190001
0.6257534 0.087071441 1.2190001
0.6280753 0.087071441 1.2190001
0.62781149 0.086714298 1.2140001
0.63012385 0.086714298 1.2140001
0.63243622 0.086714298 1.2140001
0.63474864 0.086714298 1.2140001
0.6349619 0.086428568 1.21
0.63726664 0.086428568 1.21
0.63745719 0.08614286 1.2060001
0.63975435 0.08614286 1.2060001
0.64418095 0.086428568 1.21
0.64862293 0.086714298 1.2140001
0.65093529 0.086714298 1.2140001
0.65324765 0.086714298 1.2140001
0.61878765 0.08939334 1.2190001
0.62314767 0.089686669 1.223
0.62343144 0.08939334 1.2190001
0.6257534 0.08939334 1.2190001
0.6280753 0.08939334 1.2190001
0.62781149 0.089026667 1.2140001
0.63012385 0.089026667 1.2140001
0.63243622 0.089026667 1.2140001
0.63474864 0.089026667 1.2140001
0.637061 0.089026667 1.2140001
0.63937336 0.089026667 1.2140001
0.63957149 0.088733338 1.21
0.64187622 0.088733338 1.21
0.64418095 0.088733338 1.21
0.64862293 0.089026667 1.2140001
0.65093529 0.089026667 1.2140001
0.65324765 0.089026667 1.2140001
0.62518579 0.092317149 1.2270001
0.62547719 0.09201619 1.223
0.62780666 0.09201619 1.223
0.6280753 0.091715246 1.2190001
0.6303972 0.091715246 1.2190001
0.63012385 0.091339052 1.2140001
0.63243622 0.091339052 1.2140001
0.63474864 0.091339052 1.2140001
0.637061 0.091339052 1.2140001
0.63937336 0.091339052 1.2140001
0.63957149 0.0910381 1.21
0.64187622 0.0910381 1.21
0.64418095 0.0910381 1.21
0.64862293 0.091339052 1.2140001
0.65093529 0.091339052 1.2140001
0.65324765 0.091339052 1.2140001
0.62773341 0.095040008 1.2320001
0.62752289 0.094654292 1.2270001
0.62780666 0.094345719 1.223
0.6280753 0.094037145 1.2190001
0.6303972 0.094037145 1.2190001
0.6327191 0.094037145 1.2190001
0.635041 0.094037145 1.2190001
0.63474864 0.093651436 1.2140001
0.637061 0.093651436 1.2140001
0.63937336 0.093651436 1.2140001
0.64168578 0.093651436 1.2140001
0.64399815 0.093651436 1.2140001
0.64631051 0.093651436 1.2140001
0.64862293 0.093651436 1.2140001
0.65093529 0.093651436 1.2140001
0.65324765 0.093651436 1.2140001
0.62977141 0.097702861 1.2360001
0.62752289 0.096991435 1.2270001
0.6298601 0.096991435 1.2270001
0.63013619 0.09667524 1.223
0.6303972 0.096359059 1.2190001
0.6327191 0.096359059 1.2190001
0.635041 0.096359059 1.2190001
0.6373629 0.096359059 1.2190001
0.637061 0.095963813 1.2140001
0.63937336 0.095963813 1.2140001
0.64168578 0.095963813 1.2140001
0.64399815 0.095963813 1.2140001
0.64631051 0.095963813 1.2140001
0.64862293 0.095963813 1.2140001
0.65093529 0.095963813 1.2140001
0.65324765 0.095963813 1.2140001
0.62977141 0.10005715 1.2360001
0.62547719 0.09900476 1.223
0.62780666 0.09900476 1.223
0.63013619 0.09900476 1.223
0.6303972 0.098680958 1.2190001
0.6327191 0.098680958 1.2190001
0.635041 0.098680958 1.2190001
0.6373629 0.098680958 1.2190001
0.637061 0.098276198 1.2140001
0.6420067 0.098680958 1.2190001
0.64168578 0.098276198 1.2140001
0.64399815 0.098276198 1.2140001
0.64631051 0.098276198 1.2140001
0.64862293 0.098276198 1.2140001
0.65093529 0.098276198 1.2140001
0.65324765 0.098276198 1.2140001
0.62977141 0.10241143 1.2360001
0.62547719 0.10133429 1.223
0.62780666 0.10133429 1.223
0.63013619 0.10133429 1.223
0.6303972 0.10100286 1.2190001
0.6327191 0.10100286 1.2190001
0.635041 0.10100286 1.2190001
0.6373629 0.10100286 1.2190001
0.637061 0.10058858 1.2140001
0.63937336 0.10058858 1.2140001
0.64168578 0.10058858 1.2140001
0.64399815 0.10058858 1.2140001
0.64631051 0.10058858 1.2140001
0.64862293 0.10058858 1.2140001
0.65093529 0.10058858 1.2140001
0.65324765 0.10058858 1.2140001
0.62773341 0.10442667 1.2320001
0.62547719 0.10366382 1.223
0.62780666 0.10366382 1.223
0.63013619 0.10366382 1.223
0.63246578 0.10366382 1.223
0.63479525 0.10366382 1.223
0.635041 0.10332477 1.2190001
0.6373629 0.10332477 1.2190001
0.6396848 0.10332477 1.2190001
0.6420067 0.10332477 1.2190001
0.64168578 0.10290097 1.2140001
0.64399815 0.10290097 1.2140001
0.64631051 0.10290097 1.2140001
0.64862293 0.10290097 1.2140001
0.65093529 0.10290097 1.2140001
0.65324765 0.10290097 1.2140001
0.62773341 0.10677334 1.2320001
0.62547719 0.10599334 1.223
0.6298601 0.10634001 1.2270001
0.6321972 0.10634001 1.2270001
0.6345343 0.10634001 1.2270001
0.63687152 0.10634001 1.2270001
0.63712478 0.10599334 1.223
0.63945431 0.10599334 1.223
0.6396848 0.10564668 1.2190001
0.6420067 0.10564668 1.2190001
0.64432859 0.10564668 1.2190001
0.64665049 0.10564668 1.2190001
0.64631051 0.10521334 1.2140001
0.64862293 0.10521334 1.2140001
0.65093529 0.10521334 1.2140001
0.65324765 0.10521334 1.2140001
0.63401622 0.11062572 1.2490001
0.62773341 0.10912001 1.2320001
0.62752289 0.10867715 1.2270001
0.6298601 0.10867715 1.2270001
0.6321972 0.10867715 1.2270001
0.6345343 0.10867715 1.2270001
0.63687152 0.10867715 1.2270001
0.63712478 0.10832286 1.223
0.63945431 0.10832286 1.223
0.6396848 0.10796858 1.2190001
0.64411336 0.10832286 1.223
0.64432859 0.10796858 1.2190001
0.64665049 0.10796858 1.2190001
0.64897245 0.10796858 1.2190001
0.65129435 0.10796858 1.2190001
0.65093529 0.10752572 1.2140001
0.65324765 0.10752572 1.2140001
0.63401622 0.11300477 1.2490001
0.62773341 0.11146668 1.2320001
0.62752289 0.11101429 1.2270001
0.6298601 0.11101429 1.2270001
0.63477343 0.11146668 1.2320001
0.6345343 0.11101429 1.2270001
0.63687152 0.11101429 1.2270001
0.63712478 0.11065239 1.223
0.63945431 0.11065239 1.223
0.6396848 0.11029048 1.2190001
0.6420067 0.11029048 1.2190001
0.64432859 0.11029048 1.2190001
0.64665049 0.11029048 1.2190001
0.64897245 0.11029048 1.2190001
0.65129435 0.11029048 1.2190001
0.65361625 0.11029048 1.2190001
0.65593815 0.11029048 1.2190001
0.61878765 0.11261239 1.2190001
0.62110955 0.11261239 1.2190001
0.62547719 0.11298191 1.223
0.62780666 0.11298191 1.223
0.6321972 0.11335144 1.2270001
0.6345343 0.11335144 1.2270001
0.63687152 0.11335144 1.2270001
0.63712478 0.11298191 1.223
0.63945431 0.11298191 1.223
0.64178383 0.11298191 1.223
0.64622003 0.11335144 1.2270001
0.64644289 0.11298191 1.223
0.64877236 0.11298191 1.223
0.64897245 0.11261239 1.2190001
0.65129435 0.11261239 1.2190001
0.65576094 0.11298191 1.223
0.65809053 0.11298191 1.223
0.62284863 0.11568858 1.2270001
0.62773341 0.11616001 1.2320001
0.62752289 0.11568858 1.2270001
0.63242668 0.11616001 1.2320001
0.6321972 0.11568858 1.2270001
0.6345343 0.11568858 1.2270001
0.63687152 0.11568858 1.2270001
0.63920861 0.11568858 1.2270001
0.64154577 0.11568858 1.2270001
0.64178383 0.11531143 1.223
0.64622003 0.11568858 1.2270001
0.64644289 0.11531143 1.223
0.64877236 0.11531143 1.223
0.64897245 0.11493429 1.2190001
0.65343148 0.11531143 1.223
0.65576094 0.11531143 1.223
0.65809053 0.11531143 1.223
0.62284863 0.11802572 1.2270001
0.62518579 0.11802572 1.2270001
0.62752289 0.11802572 1.2270001
0.63242668 0.11850668 1.2320001
0.6321972 0.11802572 1.2270001
0.63712007 0.11850668 1.2320001
0.63687152 0.11802572 1.2270001
0.63920861 0.11802572 1.2270001
0.64154577 0.11802572 1.2270001
0.64178383 0.11764096 1.223
0.64622003 0.11802572 1.2270001
0.64644289 0.11764096 1.223
0.65089434 0.11802572 1.2270001
0.65110195 0.11764096 1.223
0.65343148 0.11764096 1.223
0.65576094 0.11764096 1.223
0.65809053 0.11764096 1.223
0.66042006 0.11764096 1.223
0.62773341 0.12085334 1.2320001
0.62752289 0.12036287 1.2270001
0.63242668 0.12085334 1.2320001
0.6321972 0.12036287 1.2270001
0.63712007 0.12085334 1.2320001
0.63687152 0.12036287 1.2270001
0.63920861 0.12036287 1.2270001
0.64154577 0.12036287 1.2270001
0.64178383 0.11997048 1.223
0.64622003 0.12036287 1.2270001
0.64644289 0.11997048 1.223
0.65089434 0.12036287 1.2270001
0.65110195 0.11997048 1.223
0.6555686 0.12036287 1.2270001
0.65576094 0.11997048 1.223
0.65809053 0.11997048 1.223
0.66042006 0.11997048 1.223
0.62773341 0.12320001 1.2320001
0.63008004 0.12320001 1.2320001
0.63242668 0.12320001 1.2320001
0.6321972 0.12270001 1.2270001
0.63712007 0.12320001 1.2320001
0.63687152 0.12270001 1.2270001
0.63920861 0.12270001 1.2270001
0.64154577 0.12270001 1.2270001
0.64388293 0.12270001 1.2270001
0.64622003 0.12270001 1.2270001
0.64855719 0.12270001 1.2270001
0.65089434 0.12270001 1.2270001
0.6532315 0.12270001 1.2270001
0.6555686 0.12270001 1.2270001
0.65790582 0.12270001 1.2270001
0.66024292 0.12270001 1.2270001
0.66258001 0.12270001 1.2270001
0.62518579 0.12503716 1.2270001
0.62752289 0.12503716 1.2270001
0.63242668 0.12554666 1.2320001
0.6321972 0.12503716 1.2270001
0.63712007 0.12554666 1.2320001
0.63687152 0.12503716 1.2270001
0.63920861 0.12503716 1.2270001
0.64154577 0.12503716 1.2270001
0.64388293 0.12503716 1.2270001
0.64622003 0.12503716 1.2270001
0.64644289 0.12462953 1.223
0.65089434 0.12503716 1.2270001
0.6532315 0.12503716 1.2270001
0.6555686 0.12503716 1.2270001
0.65576094 0.12462953 1.223
0.66024292 0.12503716 1.2270001
0.66258001 0.12503716 1.2270001
0.62518579 0.12737429 1.2270001
0.63008004 0.12789334 1.2320001
0.63242668 0.12789334 1.2320001
0.6321972 0.12737429 1.2270001
0.63712007 0.12789334 1.2320001
0.6394667 0.12789334 1.2320001
0.6418134 0.12789334 1.2320001
0.64416003 0.12789334 1.2320001
0.64650673 0.12789334 1.2320001
0.64622003 0.12737429 1.2270001
0.64855719 0.12737429 1.2270001
0.65089434 0.12737429 1.2270001
0.6532315 0.12737429 1.2270001
0.6555686 0.12737429 1.2270001
0.65576094 0.12695906 1.223
0.66024292 0.12737429 1.2270001
0.66258001 0.12737429 1.2270001
0.62773341 0.13024001 1.2320001
0.63008004 0.13024001 1.2320001
0.63242668 0.13024001 1.2320001
0.6321972 0.12971143 1.2270001
0.63712007 0.13024001 1.2320001
0.6394667 0.13024001 1.2320001
0.6418134 0.13024001 1.2320001
0.64416003 0.13024001 1.2320001
0.64650673 0.13024001 1.2320001
0.64885342 0.13024001 1.2320001
0.65120006 0.13024001 1.2320001
0.65566862 0.13066287 1.2360001
0.65589339 0.13024001 1.2320001
0.65824002 0.13024001 1.2320001
0.65790582 0.12971143 1.2270001
0.66293341 0.13024001 1.2320001
0.66528004 0.13024001 1.2320001
0.63180953 0.13344762 1.24
0.63212574 0.13301714 1.2360001
0.63448006 0.13301714 1.2360001
0.63477343 0.13258669 1.2320001
0.63918859 0.13301714 1.2360001
0.6394667 0.13258669 1.2320001
0.6418134 0.13258669 1.2320001
0.64416003 0.13258669 1.2320001
0.64650673 0.13258669 1.2320001
0.65096003 0.13301714 1.2360001
0.65331429 0.13301714 1.2360001
0.65566862 0.13301714 1.2360001
0.65589339 0.13258669 1.2320001
0.65824002 0.13258669 1.2320001
0.66273147 0.13301714 1.2360001
0.66508573 0.13301714 1.2360001
0.66744 0.13301714 1.2360001
0.63180953 0.13580953 1.24
0.63212574 0.13537145 1.2360001
0.63448006 0.13537145 1.2360001
0.63477343 0.13493334 1.2320001
0.63918859 0.13537145 1.2360001
0.6394667 0.13493334 1.2320001
0.64389718 0.13537145 1.2360001
0.64625144 0.13537145 1.2360001
0.64650673 0.13493334 1.2320001
0.65096003 0.13537145 1.2360001
0.65331429 0.13537145 1.2360001
0.65566862 0.13537145 1.2360001
0.65589339 0.13493334 1.2320001
0.65824002 0.13493334 1.2320001
0.66058671 0.13493334 1.2320001
0.66293341 0.13493334 1.2320001
0.66744 0.13537145 1.2360001
0.63212574 0.13772571 1.2360001
0.63448006 0.13772571 1.2360001
0.63683432 0.13772571 1.2360001
0.64591146 0.1391743 1.2490001
0.6394667 0.13728002 1.2320001
0.64598095 0.13817143 1.24
0.64625144 0.13772571 1.2360001
0.6486057 0.13772571 1.2360001
0.65096003 0.13772571 1.2360001
0.65331429 0.13772571 1.2360001
0.65566862 0.13772571 1.2360001
0.65589339 0.13728002 1.2320001
0.65824002 0.13728002 1.2320001
0.66058671 0.13728002 1.2320001
0.66293341 0.13728002 1.2320001
0.63448006 0.14008002 1.2360001
0.63683432 0.14008002 1.2360001
0.64591146 0.14155334 1.2490001
0.6394667 0.13962668 1.2320001
0.64858574 0.1411 1.245
0.65095717 0.1411 1.245
0.6486057 0.14008002 1.2360001
0.65306669 0.14053333 1.24
0.65542859 0.14053333 1.24
0.65779048 0.14053333 1.24
0.66015244 0.14053333 1.24
0.66251427 0.14053333 1.24
0.64858574 0.14347143 1.245
0.65095717 0.14347143 1.245
0.6486057 0.14243428 1.2360001
0.65096003 0.14243428 1.2360001
0.65542859 0.14289525 1.24
0.65566862 0.14243428 1.2360001
0.65802288 0.14243428 1.2360001
0.66251427 0.14289525 1.24
0.64650673 0.14432001 1.2320001
0.64885342 0.14432001 1.2320001
0.65120006 0.14432001 1.2320001
0.65354669 0.14432001 1.2320001
0.65802288 0.14478858 1.2360001
0.64625144 0.14714286 1.2360001
0.64650673 0.14666668 1.2320001
0.64885342 0.14666668 1.2320001
0.65120006 0.14666668 1.2320001
0.65354669 0.14666668 1.2320001
0.65589339 0.14666668 1.2320001
0.64625144 0.14949715 1.2360001
0.64650673 0.14901336 1.2320001
0.65096003 0.14949715 1.2360001
0.65120006 0.14901336 1.2320001
0.65566862 0.14949715 1.2360001
0.65802288 0.14949715 1.2360001
0.64650673 0.15136001 1.2320001
0.65096003 0.15185143 1.2360001
0.65331429 0.15185143 1.2360001
0.65566862 0.15185143 1.2360001
0.65802288 0.15185143 1.2360001
0.65096003 0.15420572 1.2360001
0.65120006 0.15370668 1.2320001
0.65354669 0.15370668 1.2320001
0.65096003 0.15656 1.2360001
0.65120006 0.15605335 1.2320001
0.65354669 0.15605335 1.2320001
